ply
format ascii 1.0
comment File exported by Rhinoceros Version 7.0
element vertex 468
property float x
property float y
property float z
property float nx
property float ny
property float nz
property uchar red
property uchar green
property uchar blue
end_header
0.0450596906048181 -0.17743676034084 -0.0126719880630096 -0.003666959 -0.1138709 0.9934888 151 144 130
0.0229882154081144 -0.176435130606786 -0.0128582971099885 -0.01533727 -0.1205673 0.9925867 151 143 129
0.0287154151964676 -0.176146186234404 -0.0126613714593007 -0.01044453 -0.1187395 0.9928705 155 146 131
0.0338645757107302 -0.171283637033285 -0.0118964079756123 -0.003879979 -0.1143144 0.9934371 144 136 124
0.0431226193737634 -0.172434042788204 -0.0121186435016248 -0.003370098 -0.1115033 0.9937583 154 148 133
-0.0503895677733047 0.240208206753466 0.0389616451282084 0.237287 -0.09761163 0.9665231 136 114 56
0.058989762367503 -0.182426692940024 -0.013304305157675 -0.02337737 -0.121376 0.9923313 156 149 136
0.0615046883137912 -0.177945349693309 -0.0124872740120228 -0.02317319 -0.1168103 0.9928839 152 145 133
0.0558779827835548 -0.171957187855245 -0.011959057465679 -0.02087499 -0.1115236 0.9935425 156 148 135
0.0718209393198653 -0.180761772467485 -0.0124868242254777 -0.003629107 -0.1369519 0.9905711 149 141 127
0.0735970794616493 -0.173925116288264 -0.0117052444770351 0.1201497 -0.105929 0.9870882 146 137 123
0.0720924415392546 -0.170173658968264 -0.0114090385894725 0.006416689 -0.08579369 0.9962922 152 143 131
0.0466480213109365 -0.170569457506485 -0.0120699631698936 -0.003027461 -0.1121583 0.9936857 156 146 131
0.0571024917118433 -0.164270901422342 -0.011168348371886 -0.02029017 -0.1105329 0.9936653 154 146 136
0.067038849202767 -0.16686655200459 -0.0110476867119837 -0.03076816 -0.1113734 0.9933022 146 142 129
0.0236250310542304 -0.170801163809747 -0.0121228490494497 -0.01457113 -0.1189075 0.9927984 152 146 136
0.0266428651885137 -0.165326838536061 -0.0115411350019047 -0.006486306 -0.1135767 0.993508 154 148 135
0.0408509593242706 -0.16656085125037 -0.0115521992777785 -0.005276329 -0.113007 0.9935802 151 145 134
0.053681726788252 -0.163930600719883 -0.0110422746382599 -0.01383279 -0.113124 0.9934846 153 145 134
0.0560527261910498 -0.161009516021501 -0.0107695573110317 -0.01276556 -0.113891 0.9934112 156 148 138
0.0587097967716287 -0.163224453181943 -0.011271099213564 -0.02355482 -0.1114765 0.9934879 166 158 147
0.0594935145915586 -0.159340032089115 -0.0105353478507492 -0.02434659 -0.1103695 0.9935924 154 146 136
0.065745797859961 -0.157067568284745 -0.0101319231226011 -0.03322648 -0.108201 0.9935736 157 152 139
0.0635752476182018 -0.153061620068939 -0.00956984713141076 -0.02793269 -0.1094047 0.9936047 157 151 137
-0.0253385070705948 -0.178204339802006 -0.0360714063173236 -0.5490083 0.4518574 0.7031465 196 150 155
-0.0351296007064174 -0.175876331440672 -0.0366421138288253 0.06977837 0.3460168 0.9356299 178 157 106
-0.0232820456659314 -0.17119039999469 -0.0352267854417725 -0.7674549 -0.4258945 0.4791939 177 148 97
-0.0280530251551186 -0.163525356309826 -0.035047206287529 -0.4477866 -0.3735907 0.8123528 175 153 100
-0.0251432668522219 -0.176874671560312 -0.0142088028994551 -0.09219158 -0.1523466 0.9840179 142 135 129
-0.0350197996152984 -0.171530107967039 -0.0144159076336077 -0.5503815 -0.1357541 0.8238028 185 177 168
-0.0267140798144804 -0.166657788802825 -0.0129180537902892 -0.07881666 -0.1398121 0.9870362 153 145 135
-0.162185090874649 -0.0972056145940585 -0.0330557069733623 -0.3706323 -0.1700838 0.9130735 209 194 158
-0.0237343120656738 -0.168967999202827 -0.0130756648618995 -0.06472261 -0.1388022 0.9882029 148 141 131
-0.0151615730998368 -0.16250250563384 -0.011881096739102 -0.03666205 -0.1361566 0.9900087 142 134 122
-0.0275602087195866 -0.162405637787588 -0.0122876064517649 -0.1667569 -0.04236232 0.9850876 153 144 132
-0.0254879085685163 -0.160947576391035 -0.0119571475350132 -0.1262732 0.006019361 0.9919772 157 147 133
-0.0176816698283683 -0.154407642091204 -0.010947182608718 -0.1699694 -0.08082534 0.9821292 143 137 126
-0.0187795745870644 -0.150732560186607 -0.0106412545183237 -0.2328154 -0.09315325 0.9680493 147 141 127
-0.00422448029406819 -0.174818552904883 -0.013269501278393 -0.03799872 -0.1294329 0.9908599 145 140 127
-0.00881256647671147 -0.170065807103101 -0.012624302147416 -0.03570009 -0.1343929 0.9902849 141 136 128
-0.00732987532352236 -0.161026776776885 -0.0113598436061489 -0.02892243 -0.1266301 0.9915283 146 140 130
0.00516317074787953 -0.170916489533677 -0.0122841361189871 -0.01980043 -0.1205003 0.9925158 146 138 129
0.00889900787538178 -0.166055702849391 -0.0117372927194751 -0.01853163 -0.1218718 0.9923728 150 143 128
0.00282235038124246 -0.161162276531073 -0.0114001915738433 -0.01936955 -0.1238865 0.9921073 157 148 134
-0.00763525796854647 -0.15986606270261 -0.0112022593337383 -0.02748415 -0.1280384 0.9913883 148 142 132
-0.0110040678683329 -0.15606477046223 -0.0108819026245457 -0.02549065 -0.1327153 0.9908264 146 139 130
-0.00418109971804614 -0.153016331897081 -0.010313427423964 -0.01929788 -0.1305134 0.9912587 149 143 131
-0.160188741868062 0.202374288012502 0.0333076308778138 0.03192041 -0.1779711 0.9835178 128 119 109
0.00540454486480446 -0.15399425187477 -0.0104705102062773 -0.01610561 -0.1228288 0.9922972 150 144 129
0.00651850669031984 -0.150746014478078 -0.00999951640646904 -0.01431493 -0.1229867 0.992305 150 144 132
0.00143972239201251 -0.142825076028032 -0.00888637980464183 -0.002630599 -0.1327095 0.9911515 145 142 128
0.00418659764403639 -0.13808105812199 -0.00829032414414851 -0.004355072 -0.1318664 0.991258 145 139 128
-0.0387752259804016 -0.155238367154267 -0.0284800518836386 -0.1557254 -0.1782785 0.9715793 190 175 130
-0.0423753021675671 -0.149250725859773 -0.0285970487175547 -0.2445906 -0.09394513 0.9650646 186 171 120
-0.0326411960922836 -0.14915218465148 -0.0260040491553326 -0.6885751 0.02865076 0.7245988 190 173 127
-0.0455941401969521 -0.146862187946679 -0.0287456060058999 -0.2387526 -0.07970061 0.9678042 188 174 139
-0.03745154692721 -0.149668947260501 -0.0116936020981499 -0.7360924 0.02167122 0.6765341 125 122 109
-0.0448323387300585 -0.143908651252745 -0.0284232582015389 -0.2229995 -0.147868 0.9635384 188 173 137
-0.038517728789241 -0.137772705857112 -0.0261529805581973 -0.5426584 -0.3082687 0.7813401 194 178 137
-0.0489412930039544 -0.135003039111282 -0.0276336302952288 -0.2321101 -0.1594622 0.9595294 187 174 138
-0.045615661820415 -0.133350627058714 -0.027145603545196 -0.2919722 -0.3417962 0.8932679 190 176 141
-0.0317480205550938 -0.1366525848286 -0.0238437521112128 -0.6925818 -0.1714378 0.7006708 196 182 136
-0.034789096559443 -0.13284215870985 -0.0242461377024352 -0.6494943 -0.327259 0.6863371 194 178 131
0.0457075772927472 -0.133921070123951 -0.00769432523441285 0.002501207 -0.1266335 0.9919464 163 154 139
0.0221443390780306 -0.16063317384329 -0.0107413515393064 -0.01184118 -0.1139218 0.9934192 155 147 132
-0.1164909839925 -0.154032014783419 -0.0342863061103733 -0.08490594 -0.1190204 0.9892548 185 178 163
0.0311101915166941 -0.162646411926449 -0.0110413597852805 -0.00280221 -0.1139757 0.9934796 144 139 126
0.0303478132643688 -0.156648497149009 -0.0103158406553805 -0.001336601 -0.1147433 0.9933943 149 142 133
0.0351706432181552 -0.156063293535616 -0.0103834969542544 -0.00200572 -0.1144141 0.9934312 151 143 131
0.0250266038975157 -0.149293974432875 -0.00961036533800705 -0.00361838 -0.1177581 0.9930357 157 147 137
0.0377243762748237 -0.145380928766915 -0.00892619250400636 8.894769E-05 -0.1217481 0.992561 148 139 126
0.018689856917531 -0.147698133099704 -0.00958953692188488 -0.008124522 -0.1198511 0.9927586 143 137 121
0.0176535849538749 -0.142280874656196 -0.00878393944127212 -0.009110534 -0.1258907 0.9920022 145 138 125
0.0087014771075592 -0.135552330292897 -0.00802877431608059 -0.005352485 -0.1298077 0.9915248 152 143 133
0.0243695608654769 -0.142816731123689 -0.00860557591402086 -0.004545758 -0.1187235 0.9929169 150 143 129
0.026972582911082 -0.139188218415705 -0.00842371224702501 -0.006167301 -0.124125 0.9922474 156 147 133
0.021245463486201 -0.136460258855166 -0.00792209844285727 -0.005016905 -0.1280483 0.9917552 155 144 130
0.0329165196225462 -0.13332259927326 -0.00752827547811138 -0.0008651459 -0.1289153 0.9916552 146 139 126
0.0416997789036736 -0.149866152123418 -0.00960177055831732 -0.0005492553 -0.1188337 0.992914 152 146 133
-0.125404388840691 -0.162284076714567 -0.0365554964093031 -0.1107163 -0.1541347 0.9818271 187 178 162
0.0633820186645765 -0.148556297953395 -0.00931441624629162 -0.02484886 -0.1126202 0.9933274 159 151 140
0.039336997981625 -0.143158236238808 -0.00881403662357697 -0.0007738866 -0.1231839 0.9923835 150 141 128
0.0469243504829927 -0.14102939182419 -0.00846759807445965 0.00138106 -0.1213809 0.992605 155 150 136
0.0537761993248883 -0.140025444284167 -0.00852838997876079 -0.003377999 -0.1189192 0.9928982 154 147 132
0.0611299141908398 -0.139438145766862 -0.00818025439437484 -0.01455495 -0.1227108 0.9923357 152 145 131
0.0440950074234349 -0.137592061200315 -0.00799585160423913 0.0008269874 -0.1237937 0.9923076 154 146 127
0.0472650347436244 -0.133443528394165 -0.00754153668100979 0.00251936 -0.1263544 0.991982 157 149 135
0.0514859557165491 -0.136286235435155 -0.00802542293767758 -0.003478214 -0.1228819 0.9924152 162 156 141
0.0526211557799298 -0.130012973988252 -0.00720619231810962 -0.003645964 -0.1305529 0.9914346 160 153 140
0.054112775824109 -0.129586215738602 -0.00708636492039036 -0.005040345 -0.1299551 0.9915071 151 142 126
0.0590325566951774 -0.123943953321746 -0.00631560850702748 -0.01380615 -0.1278057 0.9917032 156 150 136
-0.0373519449326397 -0.142710602890246 -0.0110004600239171 -0.6134363 -0.4420974 0.6544049 130 125 110
-0.117899135369473 0.0840309318867116 0.00916076869861313 -0.07519171 -0.1977361 0.9773672 159 146 127
-0.0226505827890956 -0.135206821652582 -0.00830558447452032 -0.3145771 -0.2415981 0.9179714 149 141 132
-0.0453371252210174 -0.135709071796083 -0.0114465006982111 -0.8634661 -0.2112468 0.4580404 126 121 101
-0.0454337900017111 -0.129879519670195 -0.0100117322453176 -0.8498856 -0.2706171 0.4521735 127 120 102
-0.0365833098189955 -0.123981465322692 -0.00797320064198156 -0.6814893 -0.1511777 0.716043 155 149 136
-0.0484626844525095 -0.123685631787281 -0.0101758121757849 -0.8140744 -0.03934399 0.5794264 196 183 136
-0.0331552552871698 -0.123128364000165 -0.0071335068399295 -0.3007695 -0.1188184 0.9462663 138 130 119
-0.0378249533435148 -0.11691999471293 -0.00644496692349081 -0.7589335 0.3018957 0.5769566 137 130 120
-0.0169198326056125 -0.136169886565679 -0.00833354961043745 -0.200018 -0.1693167 0.9650517 146 140 127
-0.00852577557815859 -0.135301449372854 -0.00790047851317696 -0.01516748 -0.1353662 0.9906795 153 146 134
-0.0165701516340685 -0.133306501462703 -0.00787958743146863 -0.02236507 -0.1398205 0.9899243 146 139 126
-0.0142774474166066 -0.12600948747194 -0.00698020385890111 -0.0181662 -0.1367306 0.9904417 142 136 122
0.00184563040448726 -0.128270040526024 -0.00692632355044911 -0.003377754 -0.1281917 0.9917436 147 142 132
0.00166323165538718 -0.125794762159776 -0.0066757383098717 -0.003731689 -0.1303749 0.9914578 149 142 129
-0.0185906867895101 -0.124138558242576 -0.00662135177545256 -0.03353177 -0.1357614 0.9901739 151 144 131
-0.00702384719732574 -0.117906962282934 -0.00565092687475391 -0.004243735 -0.1328562 0.9911262 155 148 138
-0.0299607283586204 0.0514386683174461 0.0203521678757868 0.01892232 -0.1047186 0.9943219 145 137 129
-0.120319310714512 0.0146237787954202 -0.00542600091505577 -0.09970572 -0.2028004 0.9741307 172 161 137
-0.0256727975720049 -0.110742625719862 -0.00493218779217072 -0.2338744 -0.1206233 0.9647553 151 143 129
-0.004767452633759 -0.115966266532737 -0.00527789834053785 -0.002735307 -0.1341551 0.9909565 151 144 134
-0.00816272554521003 -0.111048623289376 -0.00464053669239725 -0.01103827 -0.1296277 0.9915013 150 147 135
-0.00709159971757767 -0.104537984916345 -0.00378165437268643 -0.01142498 -0.1321605 0.9911625 151 143 130
0.0379200857213001 -0.125564654376474 -0.00635541515892105 -0.0002552262 -0.126294 0.9919928 149 140 130
0.0427583092534151 -0.121652171144687 -0.00584589685224532 0.0007714942 -0.1245699 0.9922105 156 150 137
0.0509210638623544 -0.118922599954436 -0.00569596614661319 -0.005898839 -0.1234032 0.9923391 155 148 139
0.00831028243665177 -0.129189955936851 -0.00713036281991672 -0.004276245 -0.1281346 0.9917476 153 145 132
-0.0292244383133083 0.0556020913151298 0.0207444796828819 0.01850588 -0.1070425 0.9940822 143 135 121
0.0167573860946925 -0.123677014446865 -0.00640531437477118 -0.002209514 -0.1300204 0.9915088 150 142 130
0.006978228168249 -0.118771757462363 -0.00587543837284535 -0.002954262 -0.1291782 0.991617 155 146 130
0.00968025071698808 -0.116022860303446 -0.00558350857072817 -0.004308194 -0.1279134 0.991776 152 144 127
0.0238420185767582 -0.120077402319802 -0.00582757571376877 -0.004462103 -0.1265157 0.9919546 155 147 135
0.0196358547330214 -0.113518721474778 -0.00481581946341672 -0.002911125 -0.1219697 0.9925296 148 140 127
0.0272747520003894 -0.112872374669716 -0.00497085072999973 -0.003865734 -0.1228351 0.9924195 158 150 136
0.00377004992406615 -0.113670784944224 -0.00516087254704831 0.0007203966 -0.1265295 0.9919626 154 145 135
0.00766781034526443 -0.108840361107667 -0.00449987993332199 0.001628766 -0.1231883 0.992382 152 143 131
-0.00229434782260707 -0.107298446556582 -0.00422903133794997 0.002752988 -0.1280813 0.9917598 147 140 130
0.00652281514492981 -0.104013846441855 -0.00387200255046347 0.003787675 -0.1286583 0.9916818 147 140 125
0.0151637444604288 -0.107408716247795 -0.00405660060082816 -0.001636287 -0.1231458 0.9923872 150 143 129
0.015123700797771 -0.103331902809684 -0.00396737059022059 -0.00196018 -0.1269665 0.9919051 149 142 129
0.00999100795011298 -0.0981135862698399 -0.00315851000450915 -0.002240492 -0.1344789 0.9909139 150 144 126
0.0201469758244422 -0.0975871795436154 -0.00317862175066549 -0.004549514 -0.1363775 0.9906465 141 136 117
0.036483186655799 -0.122093685203539 -0.00601330793422125 0.005940922 -0.1229119 0.9923998 145 138 125
0.038906344016704 -0.115027463195082 -0.00515226476551475 0.001418989 -0.1270209 0.991899 155 146 133
0.0323941849122563 -0.111600299633389 -0.00483744623932017 -0.0004501539 -0.1282677 0.9917395 148 141 122
0.0477103264354054 -0.117258717904115 -0.00552058616625126 -0.000141272 -0.1278676 0.9917912 160 153 139
0.0446133464114881 -0.113137281833127 -0.00493770840029414 -0.001294414 -0.1259265 0.9920387 160 152 141
-0.151263812468151 0.171800055559339 0.0269884386840741 0.01266755 -0.2130879 0.9769509 154 147 138
0.0523376972357089 -0.108139717915589 -0.00443868542047224 -0.007704669 -0.1343319 0.9909064 157 149 136
0.0262762702711986 -0.107070177824709 -0.0041522808055369 -0.004802051 -0.1255684 0.9920734 157 149 134
0.0331552733977728 -0.103390027647152 -0.00366682534210236 -0.002813496 -0.1298724 0.9915267 143 136 120
0.0354967665259772 -0.0976037562918692 -0.00288128859693218 -0.00534506 -0.1395739 0.9901972 151 142 126
0.0325110322563519 -0.0956604552273699 -0.00261663376803886 -0.003942758 -0.1456397 0.9893299 145 137 120
0.0433196945508209 -0.102033368508496 -0.00336335150749165 -0.0033388 -0.1355176 0.9907693 150 146 134
0.0407131003553119 -0.0981863327906116 -0.0029827038112166 -0.002363023 -0.1421217 0.9898463 155 147 132
0.0495759785866047 -0.09517801441316 -0.00258680612542403 -0.01071857 -0.1518299 0.9883485 158 150 138
0.0416327377131777 -0.0921361151144657 -0.00228362785337385 -0.007699502 -0.1545095 0.9879613 154 146 131
0.0412893435019673 -0.0895770746950568 -0.00167254555454496 -0.006555289 -0.1568589 0.9875993 154 146 134
0.115168124281937 -0.290364871639045 -0.0349627458599663 0.08684302 -0.1432972 0.9858621 189 178 150
0.116716556366075 -0.285106246688116 -0.033114402329122 0.1171028 -0.1510298 0.9815686 190 181 160
-0.0292090626035256 -0.111778067861222 -0.0196380371497427 -0.8319541 0.1294895 0.5395228 193 179 112
0.119662101898028 -0.279439624486331 -0.0336368110695019 0.1488332 -0.1817851 0.9720097 178 168 147
0.113412658885318 -0.277034042023522 -0.0297957457457432 0.08972746 -0.1536946 0.984036 174 169 153
0.122142306925415 -0.272416555639841 -0.0308532925168254 0.1115348 -0.1734439 0.9785076 182 172 147
0.116442618921122 -0.26838612088004 -0.0292176665115046 0.06969006 -0.1413077 0.9875097 169 163 147
0.126034228581034 -0.267138971720386 -0.0330864552204932 0.1641236 -0.1931273 0.9673496 187 177 151
0.128042412253366 -0.262582592265301 -0.0321376913464763 0.137979 -0.1624603 0.9770202 187 176 146
-0.187196956632091 0.0506890000261444 -0.00635061028322195 -0.3193363 -0.3123932 0.8946702 199 185 124
0.0941308635003609 0.0378811946730995 0.00903732736167848 0.3791257 -0.08061778 0.9218267 193 181 157
0.109002096720465 -0.269508691980608 -0.0290251464284549 0.01552663 -0.1203364 0.9926118 166 159 148
0.122917600401817 -0.266452694297436 -0.0280065442777771 0.08814406 -0.1652909 0.9822981 145 141 116
0.108992358313874 -0.266316471323153 -0.0290033004480564 -0.01475056 -0.09953905 0.9949243 176 169 155
0.113363225136851 -0.263945606280163 -0.0286095300288642 0.04862979 -0.1173115 0.9919038 173 167 154
0.103913109618064 -0.257619001187205 -0.0283894917909101 -0.01506375 -0.09556808 0.9953089 175 167 154
0.113332815222632 -0.253069626212727 -0.0275435978525443 -0.04309291 -0.1014535 0.9939066 168 162 148
0.121355377462702 -0.259372762252403 -0.0277534750017498 0.06866123 -0.1397649 0.9878013 171 161 144
0.118522290871926 -0.255805469718715 -0.0277093568435142 0.01947803 -0.1445356 0.9893079 160 155 145
0.115180168315828 -0.252063862683131 -0.027596027322231 -0.04407436 -0.09872533 0.9941382 173 166 153
0.113620028668594 -0.246697463500349 -0.0269407442943182 -0.04031977 -0.1000899 0.9941611 168 163 149
0.131261806130439 -0.255471632505456 -0.0296991877002729 0.1497212 -0.1631932 0.9751675 187 175 148
0.135508748611985 -0.249335388129653 -0.0327311714686908 0.1695733 -0.2456818 0.9544032 185 174 138
-0.0863933831522948 -0.122443377199666 -0.0258836829761506 -0.2008224 -0.1341613 0.9703974 188 180 167
0.0947181582883855 -0.131184168892924 -0.0148529290398398 0.2992819 -0.09442631 0.9494809 186 176 159
0.0404212546242509 0.0874281694521446 0.0226928817836697 0.006647956 -0.1005321 0.9949116 163 154 144
0.101649549553647 -0.248295536280339 -0.0271222447702155 0.1507874 -0.1498584 0.9771416 158 152 131
0.111175971839282 -0.23993266956149 -0.0263501357645037 -0.04345791 -0.1016108 0.9938745 169 163 146
0.0993759528609958 -0.238036514409652 -0.0261862223687277 0.1841411 -0.06730053 0.980593 162 156 139
0.108108120086145 -0.233753538185054 -0.0261058344261161 -0.02457178 -0.1002373 0.9946601 161 155 139
0.117304877257558 -0.241040134867941 -0.0262694046815549 -0.07000614 -0.1050824 0.9919964 171 162 147
0.121297817539393 -0.238498247858457 -0.0256926705144595 -0.06503452 -0.1119861 0.9915794 149 145 130
0.113132044773476 -0.233859181777274 -0.0255436197134514 -0.04834108 -0.09926082 0.9938865 164 158 144
0.122614550523192 -0.230183545730656 -0.0244515855692029 -0.09348464 -0.1058897 0.9899737 146 142 130
0.106347711826752 -0.229517419598162 -0.0256005590947413 -0.01810695 -0.1042594 0.9943853 161 155 136
0.140665908522291 -0.238850852135407 -0.031097144923158 0.2197862 -0.2044952 0.9538741 176 162 107
0.130397271563283 -0.235495621196037 -0.0242290433452375 0.103212 -0.1965936 0.9750376 171 162 150
0.126629470990169 -0.234276742716138 -0.0245136951794197 -0.03670505 -0.135367 0.9901154 150 145 129
0.135006842877438 -0.229944179903413 -0.0232120469401421 0.1501312 -0.1756483 0.972938 161 153 139
0.125390740214652 -0.227398797247312 -0.0237922358758838 -0.01185957 -0.1081212 0.994067 146 142 131
0.140586538532153 -0.235574261474236 -0.0268757103964812 0.234468 -0.1982881 0.9516862 187 176 143
0.140532679752983 -0.230098727193023 -0.0250937913912083 0.232124 -0.179856 0.9559133 181 169 131
0.135403396082373 -0.224467949138198 -0.0224606649716178 0.1359431 -0.1404954 0.9807041 163 156 141
0.140926899153245 -0.223451524519339 -0.0286184180806065 0.2481014 -0.1434171 0.9580591 184 171 139
0.141188996298505 -0.217906825163453 -0.0280886631623849 0.2160518 -0.1812085 0.9594191 188 175 138
0.0951254659776738 -0.227634254930146 -0.0254226809949822 0.2221572 -0.07515457 0.9721101 181 172 154
0.0939144801892288 -0.225334381178364 -0.0250778934525557 0.3676383 -0.1152118 0.9228046 182 174 155
0.0962744981168503 -0.218211366766616 -0.0242734077767679 0.1529167 -0.06310114 0.9862224 178 169 152
0.110049301934375 -0.224989817590531 -0.0248381567274813 -0.03778223 -0.1049775 0.9937566 177 170 155
0.117146640965423 -0.219213057176386 -0.0239168719450195 -0.07865545 -0.1114308 0.9906546 162 158 143
0.112464447810952 -0.21695584494936 -0.0239649692620281 -0.0511517 -0.1099358 0.9926216 164 158 144
0.111312889728827 -0.213783441981593 -0.0236534386799385 -0.04292029 -0.1203272 0.991806 158 152 139
0.132739310753101 -0.223373980074584 -0.0225719360615608 0.0574615 -0.1445048 0.9878343 160 153 141
0.120443873386744 -0.222691036275303 -0.0241716617470761 -0.09038366 -0.1102919 0.989781 159 154 140
0.126363509755903 -0.214584912986462 -0.0224950559647515 -0.04068794 -0.0829581 0.9957221 154 148 136
0.127685820130434 -0.210619838426374 -0.0218899071576092 -0.04097093 -0.09997495 0.994146 158 152 137
0.140516775171086 -0.216202436027229 -0.0219017557685302 0.1481338 -0.1185342 0.9818381 177 167 139
0.141286264701663 -0.208331487529096 -0.0243857081610382 0.1339296 -0.1077123 0.9851198 185 174 145
0.134491691225351 -0.208512167613239 -0.0211330366750339 0.1339296 -0.1077123 0.9851198 160 152 136
0.137896423186428 -0.205596496157426 -0.0204629465092534 0.08836614 -0.103657 0.9906799 144 140 124
0.141638916968454 -0.19981112611262 -0.0203100343760494 0.09369978 -0.07644998 0.9926609 190 180 153
0.0936384588816211 -0.0378198895548236 0.00238027395036619 0.4846388 -0.1292104 0.8651184 192 177 142
-0.14123228126841 -0.131929293440904 -0.0332880989344042 -0.1420009 -0.1703026 0.9751065 186 177 157
0.06028417645787 0.212509511718998 0.0127375247615594 -0.005901453 -0.06261208 0.9980205 173 163 149
-0.0797340210189182 -0.0815392090583786 -0.0186480496570136 -0.2178088 -0.1642568 0.9620702 188 181 170
-0.159779071543149 0.0676043356038309 0.00448538891873093 0.02394071 -0.2197386 0.975265 149 136 124
0.109777503032264 0.0353648981572845 0.00831410733003177 0.02646033 -0.09642754 0.9949882 192 185 170
0.136659913048462 -0.0525297031683751 -0.0301680130203629 -0.3871112 0.08195437 -0.9183836 182 164 98
0.0931848248088106 0.0265667810499146 0.0113480685207158 0.5730855 -0.005585834 0.8194765 189 172 127
0.121996823928742 0.0468809678741655 0.00967182591404955 -0.008274809 -0.09763569 0.9951878 179 168 156
-0.0915147262871815 -0.062704533611186 -0.0175387021756015 -0.1804733 -0.1749849 0.9678893 177 169 155
0.130638722714927 -0.124737290736805 -0.0131130555492973 0.05630296 -0.09470277 0.9939122 169 161 146
-0.177274191788523 0.00790732783120207 -0.0107902016862012 -0.2439935 -0.182383 0.9524724 211 197 157
-0.0191440788283151 0.135036601557995 0.0082321014017511 0.826634 0.2816623 0.4871782 170 146 100
-0.157656418558467 0.0085503553479287 -0.00835091386752188 -0.006923042 -0.2033911 0.9790731 179 170 147
0.0939442256430071 -0.213776828784877 -0.0237811838236971 0.2769882 -0.04483311 0.9598268 181 172 154
0.0968990235462536 -0.210222460047266 -0.023755778919012 0.09602576 -0.1057374 0.9897467 187 180 162
0.109739601112386 -0.211134163104738 -0.0233580963447727 -0.03195063 -0.1097852 0.9934417 163 156 140
0.0893519344696615 -0.212769593879893 -0.0197290881244294 0.5603629 -0.09407753 0.8228869 187 173 133
0.0886873586259026 -0.209989391992549 -0.02313234099422 0.5381738 -0.1382438 0.831419 182 168 136
0.085538890682555 -0.20332926810639 -0.0226469115347313 0.498598 -0.0411513 0.865856 190 174 134
0.0972979825575494 -0.202739693563107 -0.0224604827187985 0.1656501 -0.138299 0.9764392 182 173 157
0.0866989893531597 -0.204619785056076 -0.0143821588103052 0.4429777 -0.1260909 0.8876214 155 148 133
0.108490911847621 -0.204100364389855 -0.0225229289777831 -0.02523343 -0.109136 0.9937065 155 150 137
0.100870742638529 -0.200678381971 -0.0221624258356623 0.06904751 -0.1174913 0.9906706 167 160 147
0.107812378192746 -0.203121250270829 -0.0224864046182963 -0.02231331 -0.1088512 0.9938076 163 157 144
0.0862595094419981 -0.196242331333977 -0.0214110911490562 0.5414436 -0.09303047 0.8355742 176 159 121
0.0947778788698433 -0.191649598023603 -0.0215391422045987 0.2879818 -0.06023124 0.9557399 187 178 156
0.102480186134306 -0.192932427386707 -0.0213459627365395 0.1071128 -0.1109297 0.9880392 177 169 153
0.10480785869642 -0.195058294645124 -0.0217039057466761 0.03266965 -0.09921566 0.9945295 169 161 147
0.101280285192191 -0.187489225510048 -0.0209649588499089 0.0878647 -0.1194885 0.98894 176 167 151
0.125385931365942 -0.204852224534524 -0.0216791077376375 -0.06109116 -0.1054335 0.992548 148 144 132
0.123519044670022 -0.200234389105436 -0.0215266093318149 -0.07719994 -0.09482829 0.9924957 164 158 143
0.1186879900592 -0.196586643014902 -0.0217182833089915 -0.05205606 -0.102868 0.9933319 162 157 144
0.121755301509312 -0.189802345224788 -0.0205572589512284 -0.0633598 -0.09771831 0.9931952 166 159 149
-0.198069615204156 0.104788918047038 0.00717285270958987 -0.212818 -0.2449944 0.9458786 168 149 85
0.135539442000193 -0.192083268795249 -0.0193506140449489 0.08165538 -0.05047215 0.9953818 155 149 138
0.131374162300167 -0.19117726859952 -0.0195269447511751 0.03953918 -0.06296661 0.9972321 157 152 138
0.114905053059998 -0.191868882482579 -0.0212031385208178 -0.0384671 -0.09988702 0.9942549 166 161 146
0.119987332857376 -0.187191788925876 -0.0204429982145289 -0.05832181 -0.09781761 0.993494 169 161 149
0.122106285488968 -0.183399639854223 -0.0198829115268994 -0.06911885 -0.1010095 0.9924816 162 157 139
0.141832382856263 -0.196765926543918 -0.0266416342475445 0.114205 -0.06991003 0.9909943 189 177 142
0.142163914309029 -0.19383085385136 -0.0260335090578566 0.1365584 -0.02351654 0.9903529 180 167 132
0.141859254226494 -0.194066063411368 -0.0200933983772554 0.1386224 -0.04319556 0.9894028 182 171 145
0.051751714440826 0.171746202160172 0.0071945859673391 -0.08442827 -0.103038 0.9910878 175 163 138
0.137794698843571 -0.189589255349901 -0.0186831930110657 0.1015367 -0.05665144 0.9932175 161 156 144
0.142523855832987 -0.183030347702396 -0.0213445182844682 0.1696124 -0.0536331 0.9840504 177 163 124
0.142490837611248 -0.183318656465917 -0.0227008844690928 0.1696124 -0.0536331 0.9840504 180 166 127
0.142357458393217 -0.17966538477428 -0.0234976913823416 0.1808746 -0.061237 0.9815979 182 169 135
0.142687145408081 -0.173092344113664 -0.0247924964634528 0.2393098 -0.0716862 0.9682933 164 148 96
-0.0108665465076817 0.12027788150414 0.0274080390465354 0.04478496 0.02005856 0.9987953 157 143 131
0.10084874383861 0.107878099461586 0.0158584454278165 0.147684 -0.07749336 0.985994 187 179 164
0.0881784857926285 0.181551329310944 0.00212240900328084 0.2385092 -0.03559201 0.9704878 189 180 165
0.0306464587960368 0.220565689322718 0.0170649649443338 0.2946072 -0.08302564 0.9520049 200 186 142
-0.0734056071191115 -0.0516569986141879 -0.0123980540127546 -0.2205482 -0.1694929 0.9605367 184 177 170
0.110954956693057 0.258599538008038 0.0111669452198407 -0.04991072 -0.1320162 0.9899902 185 174 164
-0.0668334959702895 0.0530160627228586 0.00969539973930597 -0.4566495 -0.156036 0.8758562 165 150 111
0.131560953926709 -0.0515050558657588 -0.0246400480902391 -0.373823 0.07414541 -0.9245316 187 171 135
0.0205817197937163 0.204337732026864 0.0178883037745005 0.2536679 -0.06069005 0.9653856 179 171 155
-0.0661295642267986 -0.0840494858009633 -0.0156453598582567 -0.2213826 -0.1472568 0.9640048 188 179 165
0.107812592138558 -0.177532364472576 -0.0197128675860405 -0.0224234 -0.1045522 0.9942666 175 166 154
0.0793460453683484 0.0698381940116806 0.0212297718775973 0.1926806 -0.001126382 0.9812609 176 169 156
0.0679842205750331 0.200312983312409 0.0118321981557511 0.2213588 -0.1067668 0.9693303 174 163 141
0.0795372199037488 0.138772212412474 0.0259157742617712 0.1336114 0.2856686 0.9489686 205 187 183
-0.13024718719168 0.116552577639707 0.0155452857927222 -0.04408652 -0.2213225 0.9742036 128 121 102
0.0863069698685114 -0.199526198870559 -0.0139461535184408 0.486449 -0.1393254 0.8625287 161 153 141
0.0893438158562053 -0.189797299977233 -0.0157016438844388 0.4685467 -0.05939077 0.8814402 189 175 136
0.0900258419123806 -0.188767805785734 -0.020800119553536 0.4062535 -0.03678922 0.9130195 186 174 149
0.089468666487509 -0.18473813482934 -0.0160950052737104 0.4916395 -0.1519707 0.8574354 180 165 128
0.0838654054795037 -0.18128122674975 -0.0120776256276116 0.3297025 -0.1565919 0.9310076 156 147 133
-0.110480272084151 -0.109456745697968 -0.0276225532599046 -0.1007719 -0.1559578 0.9826099 192 183 172
0.0971161266444726 -0.184261624702501 -0.0206259697904684 0.090603 -0.08726152 0.9920567 179 170 154
0.102958117152174 -0.182080582236955 -0.0204026533847395 0.0657164 -0.1081751 0.9919574 174 167 149
0.107169152276958 -0.181455512103845 -0.0200387633696924 -0.02306283 -0.1053061 0.9941724 168 162 149
0.115368755390117 -0.175118333970831 -0.0192605459227908 -0.03547789 -0.1070632 0.993619 179 172 158
0.132195261525174 -0.179379284048221 -0.0184313692613706 0.07175022 -0.06141322 0.9955302 163 156 141
0.121104345153262 -0.173379288926967 -0.0188856367383455 -0.05934294 -0.1044934 0.9927535 157 151 136
0.126220507494155 -0.168887459647984 -0.0180999799044294 0.002041491 -0.09648604 0.9953322 160 153 140
0.0865486775783159 -0.175548848959529 -0.0194215163060169 0.4785537 -0.1249153 0.8691275 178 162 119
0.0984074330280525 -0.176313838976483 -0.0196206559564444 0.1125662 -0.1407385 0.9836267 175 169 154
0.0949771836875027 -0.173224622961503 -0.0196574307892603 0.2007708 -0.1548169 0.9673277 176 169 149
0.0986900253543813 -0.170256834211122 -0.019350147567482 0.1759855 -0.1079363 0.9784574 180 173 159
0.0807566369093974 -0.17943995194177 -0.0119421043930549 0.2175928 -0.1745134 0.9603117 146 140 127
0.0869391233494793 -0.174960446028273 -0.00912630349954938 0.3369016 -0.1469179 0.9300067 145 138 128
0.0761913438843768 -0.169601329051277 -0.0109766191329268 0.1236767 -0.09421151 0.9878402 154 146 135
0.0891723737464948 -0.17266998392746 -0.015879898195856 0.4072683 -0.08152508 0.9096627 187 172 123
0.0895404333081783 -0.166879848643485 -0.0131509162276058 0.5205156 -0.05235235 0.8522457 185 170 123
0.0898542235002769 -0.162699851661122 -0.0108626392874346 0.531027 0.01952551 0.8471299 189 178 144
0.0734490389887538 -0.162588276728244 -0.0103322362639588 0.2236792 -0.1086462 0.9685885 152 146 132
0.0858029791830434 -0.16079151802242 -0.0176790007737531 0.3721913 -0.106196 0.9220608 178 163 120
0.0896840214917899 -0.158290262508398 -0.0117019604260159 0.628655 -0.2155238 0.7472231 190 177 141
0.0899650904451087 -0.15550148164963 -0.0172420315474844 0.4940167 -0.2418697 0.8351326 186 174 147
0.110484917760339 -0.173914613285256 -0.0191296327184061 -0.02593109 -0.1064697 0.9939777 170 164 152
0.0530776642326282 0.274062621428159 0.017666322342476 0.007740565 0.1825556 0.9831651 191 179 161
-0.121932986978916 0.0839564329894043 0.00901389052299092 -0.07596162 -0.2033143 0.9761624 138 129 112
0.120402731671423 -0.170387638838823 -0.0186916575692929 -0.05567955 -0.1065585 0.9927462 162 155 143
0.12826933317527 -0.167134281318827 -0.0177064267196766 0.03446439 -0.06725235 0.9971406 169 161 149
0.0998507351780217 -0.162187330860766 -0.0184848253654629 0.1376986 -0.1273178 0.9822572 178 170 152
0.111610533772735 -0.157237436902056 -0.0171464841737306 -0.02743516 -0.1174521 0.9926995 163 158 144
0.120883647043662 -0.156518073314679 -0.017313073827454 -0.03176473 -0.1130621 0.99308 169 162 147
0.107020227184103 -0.155117243726603 -0.0170890999912482 0.07452368 -0.1396436 0.9873935 184 175 160
0.109288393216343 -0.150679728580456 -0.0165053061309198 -0.02458142 -0.1176193 0.9927545 173 166 152
0.10762272961968 -0.146506957009884 -0.0158603790189712 -0.02681509 -0.1156025 0.9929335 173 168 153
0.113770251450452 -0.151034142269319 -0.0165039770064298 -0.02648092 -0.1178449 0.9926789 166 159 148
0.113696891985828 -0.14480625592486 -0.015777993293883 -0.02346782 -0.1146856 0.9931246 170 163 150
0.0763131991266982 -0.160375168676113 -0.0101051984348826 0.2013755 -0.1544082 0.9672673 155 146 131
0.0769786332524004 -0.15396777128565 -0.00935550353794681 0.1300534 -0.2497763 0.9595301 149 141 126
0.110911751690031 -0.0661817885318288 -0.00557463638245373 -0.02193696 -0.1677975 0.9855773 173 166 152
0.0896036466218623 -0.151606677425666 -0.0128691413405163 0.5514288 -0.1530617 0.82006 191 177 136
0.0907228341209746 -0.147520568090955 -0.00832266830705833 0.4831836 -0.1424762 0.8638484 184 174 146
0.089046038506119 -0.145366562161893 -0.00774325512790544 0.4420803 -0.0418957 0.8959965 170 160 137
0.114305505795921 -0.139976005941785 -0.0151000522546284 -0.02428684 -0.1088194 0.9937648 159 155 140
0.137275117339081 -0.175916800804845 -0.0177229535672783 0.1229276 -0.06183468 0.9904874 145 143 124
0.142038925622385 -0.171104501091125 -0.022212619014561 0.2120469 -0.07144339 0.9746445 191 179 146
0.142979814738958 -0.171338793232682 -0.0173701610190176 0.2120469 -0.07144339 0.9746445 177 166 138
0.141769448836108 -0.16362707254939 -0.0218086135053321 0.228471 -0.1009506 0.9683026 193 182 151
0.131495042046021 -0.161582535228033 -0.0166370512490505 0.07792464 -0.0775373 0.9939395 151 145 133
0.136752866479068 -0.160222981920735 -0.0162344399835029 0.1679794 -0.1011201 0.9805905 165 159 145
0.142725901584512 -0.158612700198112 -0.0168969434617353 0.2157152 -0.1074894 0.970522 191 180 151
0.142186903758319 -0.154532842233634 -0.0226508718437584 0.2286215 -0.1238995 0.9655988 173 161 124
0.128031399304314 -0.156769109705862 -0.0166666436143628 0.07963285 -0.1114308 0.9905765 162 156 144
0.138642724658745 -0.153275445720313 -0.0150522461210039 0.1176955 -0.1358929 0.9837077 152 148 133
0.142534596824152 -0.147935577597865 -0.0190267048959013 0.1370179 -0.1674139 0.976319 188 176 145
0.123347963718267 -0.147780952067568 -0.0162318567936479 -0.03492738 -0.109308 0.9933941 176 168 150
0.13013410957158 -0.144021217629067 -0.015111503334882 0.02700965 -0.104194 0.9941902 164 158 146
0.124048986864205 -0.140263300783505 -0.0151018964618162 -0.03627613 -0.1140406 0.9928136 163 157 141
0.142652679448514 -0.140979565314582 -0.0189503032458959 0.1225386 -0.1447392 0.9818528 189 177 146
0.142853961058361 -0.141149191304801 -0.0157006026070645 0.1225386 -0.1447392 0.9818528 191 179 149
0.143463752189216 -0.1341945569353 -0.0141054721858117 0.1392177 -0.09415803 0.9857752 187 174 148
0.1432115465291 -0.134097006646429 -0.018003934505584 0.1230537 -0.08133505 0.9890614 185 173 142
0.123913203136754 -0.136259806037313 -0.0146721970814992 -0.04287094 -0.1092764 0.9930865 173 167 150
0.138015274716478 -0.133536451856128 -0.0132691920153883 0.08814295 -0.1279571 0.9878551 165 158 144
-0.160440823347065 0.0622967207241716 0.00333398062554477 0.02504227 -0.2199811 0.9751827 162 150 129
0.069780952071458 -0.140906389677566 -0.00830568797738648 -0.03395221 -0.1190227 0.9923109 170 162 149
0.0883171051029682 -0.138604818608543 -0.0153821418897382 0.4691032 -0.0868896 0.8788586 185 171 136
0.0908048846003543 -0.138998096018225 -0.00720444590171412 0.4816206 -0.05369668 0.8747333 183 171 147
0.0862653517874482 -0.130291179896591 -0.0138682559253579 0.4002141 -0.08432629 0.9125337 184 170 129
0.0716773374708738 -0.11723933226372 -0.0053216133314489 -0.02168805 -0.1229886 0.992171 152 146 131
0.0703959440038046 -0.133114192706657 -0.00719021422581981 -0.02779318 -0.1225113 0.9920779 159 151 140
0.0887961810717465 -0.136672087633464 -0.00673811419218853 0.3656538 -0.01736452 0.9305889 177 170 149
0.00304109054852308 0.05865930565861 0.0202589157664553 0.03368439 -0.1014525 0.99427 155 145 129
0.085326769624036 -0.127365717091052 -0.00599769659100827 0.3368787 -0.06248187 0.9394726 151 142 126
0.0658410438628271 -0.127231685452678 -0.00666783662696727 -0.01887593 -0.1257707 0.9918798 168 160 146
0.0677899636595091 -0.128653666994934 -0.00664176559258986 -0.01842617 -0.125918 0.9918695 169 161 148
0.0715955767921842 -0.119761972336972 -0.00555003403458873 -0.0244935 -0.1225941 0.9921546 158 150 138
0.0734671623773214 -0.119139435547216 -0.00542980765936332 -0.0244935 -0.1225941 0.9921546 154 146 135
0.0807206796492751 -0.119939102127278 -0.00541447233129791 0.1652104 -0.1596358 0.9732533 159 149 131
0.0934754129651997 -0.139231886158792 -0.0156676310980056 0.4895224 -0.07322026 0.8689112 188 178 157
-0.143440259207043 -0.131259752850699 -0.0335207884745476 -0.2190025 -0.1771647 0.9595054 186 176 151
0.0910938503177904 -0.13408286392064 -0.0149987599276057 0.4931523 -0.002265344 0.86994 190 179 154
0.0997162619696274 -0.132550058129183 -0.01506794688405 0.1515659 -0.1305616 0.9797865 178 170 155
0.0987971901388837 -0.12664938754085 -0.0140302340576621 0.127077 -0.1046107 0.986361 178 170 157
0.110960112495626 -0.133384634724368 -0.0146414592091695 -0.02271689 -0.1085681 0.9938294 173 165 149
0.113053112628306 -0.128985270279327 -0.0140347940695868 -0.02227473 -0.1086261 0.9938331 171 164 150
0.106873682918685 -0.12477950946277 -0.0137344057806775 -0.01960124 -0.11166 0.9935532 183 175 164
0.111260347773326 -0.122108542156105 -0.0133855033950266 -0.02473412 -0.1149549 0.9930627 177 169 155
0.0906155404019487 -0.132647941881222 -0.00835665005427008 0.5220547 -0.01104498 0.8528405 186 173 136
0.0892731803135441 -0.120823832891594 -0.0131823261462805 0.362853 -0.1486816 0.9199084 185 170 136
0.0922436916013397 -0.117625466554091 -0.0130367923934873 0.4022012 -0.1303638 0.9062226 185 174 149
0.0972426179220173 -0.115104411181321 -0.0125955649574084 0.1960296 -0.1441271 0.9699484 178 170 154
0.090758304616701 -0.11353060955 -0.0123007603304529 0.3419721 -0.08717471 0.9356579 187 173 148
-0.146263870662471 -0.122957695496513 -0.0321351890348414 -0.174016 -0.2128317 0.9614682 187 178 158
0.1043810348925 -0.116024342249396 -0.01296999090376 0.07345319 -0.1237725 0.9895883 170 163 149
0.107530524016628 -0.113114149210841 -0.0124203166993442 -0.02481539 -0.1134075 0.9932386 174 164 152
0.100059086009772 -0.108928554604196 -0.0122343885545896 0.1502307 -0.08821663 0.9847074 183 175 160
0.0882685467911789 -0.105473944588613 -0.0111930973865795 0.3997103 -0.1195146 0.9088168 183 166 130
0.0996721498923742 -0.101618525903268 -0.0111527791641064 0.2029577 -0.1381738 0.9693896 182 172 157
0.131145146181567 -0.12451478354916 -0.040368121791815 0.99357 -0.1121444 -0.01556509 183 161 86
0.141761573917922 -0.122403630708796 -0.039912195311746 0.9212322 0.06793611 -0.3830352 182 164 118
0.123464644354714 -0.12296513727354 -0.0383069563591157 0.8914514 -0.2655684 0.3671346 195 178 119
0.125734013929881 -0.120344907270661 -0.0371068369668548 0.9535284 -0.1212503 0.2758296 202 184 140
0.139307148682612 -0.115678376354381 -0.0400494588176651 0.9157535 0.02966575 -0.4006437 181 160 98
-0.0625826009759399 0.01603898742661 0.0133754002035452 -0.6826117 -0.2035723 0.7018544 188 174 113
0.131831951142893 -0.110123148116684 -0.035395484055734 0.9791148 -0.04322701 -0.1986593 191 172 119
0.134663170501279 -0.104110938978267 -0.0345034746865649 0.9386638 0.07125165 -0.3373921 193 175 127
0.0716811570747337 0.152234287100453 0.0070804565677681 0.09199344 0.0909227 0.9915999 175 156 126
0.122985731709843 -0.127845602984197 -0.0139054868377301 -0.03976177 -0.1135762 0.9927333 169 162 146
0.127599485886542 -0.125607333978101 -0.0133298536841047 -0.004229053 -0.1163025 0.9932048 169 162 148
0.125975847811933 -0.120083267003021 -0.0129127623020248 0.03196723 -0.1153051 0.9928156 174 168 156
0.143342703525615 -0.124233083638027 -0.0172198195417743 0.1696527 -0.06962319 0.9830415 186 174 145
0.134839672038815 -0.120341062910314 -0.0122013348064387 0.1062136 -0.09250318 0.9900312 164 157 145
0.128524062580421 -0.112036584259295 -0.0300086934955975 0.9629796 -0.09689824 0.2515573 196 182 128
0.139369852201925 -0.113276290762172 -0.0108488136190957 0.1355366 -0.1049041 0.985203 159 153 138
0.12047097979003 -0.114917872164686 -0.0122279001019968 -0.03497909 -0.1197939 0.9921824 161 155 141
0.120413676282953 -0.10855849366401 -0.0113257468093118 -0.03648788 -0.12342 0.9916835 169 164 154
0.111459578305384 -0.105357946653575 -0.0113928754884618 -0.02894717 -0.1254996 0.9916713 171 165 152
0.115997501998274 -0.100876465736439 -0.0107487076396744 -0.03339112 -0.1295207 0.9910144 168 160 146
0.133139435055805 -0.107481330344791 -0.0108030392010006 0.09497438 -0.1019752 0.9902428 166 161 149
0.123228463995972 -0.0973864936902367 -0.00984631350296564 -0.0424369 -0.1308876 0.9904885 167 160 148
0.130510361276151 -0.0964670052337087 -0.00957360485909617 0.08293711 -0.158521 0.9838661 166 159 147
0.143250706912038 -0.12264089554578 -0.0143488172389654 0.1591147 -0.07002944 0.9847733 196 184 154
0.143363779305256 -0.117235790673113 -0.0148636367124491 0.1654084 -0.09815149 0.9813288 191 178 149
0.143543317792327 -0.109003399159544 -0.0147093902186004 0.11858 -0.06930878 0.9905226 190 178 148
0.143350502428561 -0.104898620185831 -0.0156196604290356 -0.7702067 -0.02308922 0.6373762 194 182 152
0.140496655810884 -0.105485365590532 -0.00976084386774947 0.1619734 -0.0992402 0.9817922 160 153 142
0.143772802968046 -0.0998788623516338 -0.0154436408889499 -0.8398228 -0.1242684 0.5284459 188 176 143
0.144324904608752 -0.0997997661546075 -0.00979855889408385 0.1525518 -0.1352064 0.9790031 192 178 148
0.144188836998499 -0.096479557031427 -0.0109798297002286 0.1143846 -0.178922 0.9771914 191 178 148
0.144295642040413 -0.0902712680765605 -0.00995276861336705 0.1017149 -0.1418113 0.9846541 193 181 153
0.133919645691762 -0.101615317425468 -0.0311509329842467 0.9666745 0.1529395 -0.2053043 201 186 141
0.13121727502028 -0.095072559502513 -0.028335063477261 0.9883336 -0.1397064 0.06065233 184 166 121
0.11809815772356 -0.0988377542475956 -0.0103841540919168 -0.03360792 -0.1296437 0.9909909 170 162 149
0.13467032560556 -0.0933715600736216 -0.0335819512178817 0.9793732 0.01465869 -0.2015274 195 178 132
0.134151435797779 -0.0877181273368326 -0.0304654638770836 0.96422 -0.0231643 -0.2640895 199 185 148
0.144233069921773 -0.0887631787954912 -0.0105037263999423 0.102093 -0.1560076 0.9824656 193 180 152
0.132810996924349 -0.0861071844197079 -0.0272988469699149 0.9857361 0.0008447833 -0.1682962 195 181 141
0.134544955698052 -0.0779830759373978 -0.0289457961011035 0.9963866 0.01993026 -0.08256169 196 181 139
0.134075877464031 -0.0768490676342664 -0.0275548592339235 0.9968412 0.05122444 -0.06069373 201 186 150
0.0586956052902839 -0.117570274282194 -0.0054940351275046 -0.01436778 -0.1254927 0.9919905 156 149 132
0.0690860899885132 -0.115006437415741 -0.00517819063368205 -0.01496245 -0.1218602 0.9924345 161 153 141
0.0766324031716509 -0.11544229869478 -0.00479359134113347 0.06621931 -0.1435057 0.9874316 151 144 128
0.0780811713201502 -0.111536445876777 -0.00445511999170059 0.1013366 -0.1129677 0.9884175 152 142 124
0.090890079828606 -0.112285382714245 -0.00429594588922175 0.3678168 -0.09466174 0.9250675 190 178 152
0.0910716328914242 -0.10768027039304 -0.00288894789965474 0.4112513 -0.1588293 0.8975776 186 175 156
0.06156889453416 -0.112091287589466 -0.00477719081663205 -0.01130647 -0.1262454 0.9919346 160 152 140
0.0533158394185876 -0.104309114150965 -0.00384895536653465 -0.005401623 -0.1340532 0.9909594 155 147 136
0.0739599817009396 -0.105433705376864 -0.00356914388157467 0.1580099 -0.09864495 0.9824979 146 140 127
0.0745381833550295 -0.103943338950024 -0.00355723565992164 0.1645251 -0.1085892 0.9803774 149 141 126
0.0716102343424901 -0.100787449683956 -0.00325464139494144 0.1182863 -0.1359023 0.9836355 154 145 130
0.0637270560749849 -0.0956339221868145 -0.00231684766236182 -0.01260751 -0.1492165 0.9887242 156 147 135
0.0776228174157724 -0.0957810810280548 -0.00187703937845327 0.1411809 -0.1772461 0.9739876 147 138 125
0.0625308972068216 -0.0934926005203802 -0.00205596397299726 -0.0155906 -0.151331 0.9883602 152 144 129
0.0537946681489886 -0.0905130166512382 -0.00178261773549906 -0.01130539 -0.1561859 0.987663 149 143 126
0.0522529462079399 -0.0847503215835486 -0.000854282729104844 -0.01299856 -0.1618567 0.9867287 153 143 127
0.0589331991520919 -0.0834340830114615 -0.000349067446707679 -0.01081729 -0.1634966 0.9864846 143 137 123
0.0657861278607915 -0.0880793300628253 -0.00122113380250213 -0.02400482 -0.1598677 0.9868466 157 149 135
0.0624876910800226 -0.0842473767319731 -0.000624675751931952 -0.01608001 -0.1635943 0.9863967 158 149 133
-0.0247743853933801 0.0477750281725551 0.0198780324533487 0.01654217 -0.1027482 0.9945698 153 144 131
0.0871567354913446 -0.102312147577116 -0.0111370201760753 0.3733422 -0.113266 0.9207532 186 169 134
0.0915351024736194 -0.0967551201532337 -0.0104356429254501 0.3188244 -0.1031169 0.9421878 189 175 153
0.0971339043055562 0.150109072706202 -0.00101010429756201 0.06536638 -0.04143423 0.9970007 194 179 147
0.0910854780648213 -0.101951283067453 -0.00193138001387014 0.3860618 -0.1157869 0.9151774 178 167 148
0.0863457224529772 -0.0929732650679551 -0.0100696620623039 0.3785328 -0.2419414 0.8934077 187 170 133
0.101300661572031 -0.100463731828195 -0.0112758701721657 0.1670702 -0.1395622 0.9760174 178 170 153
0.0924975585742748 -0.0941802241615752 -0.0102860793234182 0.3308519 -0.2023457 0.9217338 182 170 146
0.102981097506994 -0.0924802491660555 -0.00970980314281475 0.1095615 -0.1419979 0.983785 173 166 149
0.0918258473653603 -0.0925374621969017 -0.00212736455661053 0.4517935 -0.245653 0.8576347 190 176 144
0.102714684564157 -0.0875454695179079 -0.00902779399854584 0.184381 -0.1630446 0.9692369 175 168 154
0.0869374971151943 -0.0835404010258116 -0.00885535561534143 0.5740774 -0.2368063 0.7838099 188 170 131
0.0918570836552065 -0.0833603260287841 -0.00848945531846876 0.4746791 -0.1430286 0.8684599 186 172 141
0.0991611726528313 -0.0814369952070131 -0.00828778987575476 0.2243982 -0.1574332 0.9616966 177 167 150
0.086731002301054 -0.0880217171266973 -0.000460193816616411 0.4729401 -0.2238883 0.8521746 155 148 134
0.0884813628193905 -0.0849895218904884 0.000337775583083205 0.542052 -0.198918 0.8164626 156 148 126
0.0850891150077865 -0.0855254707593216 -0.000185475473692048 0.4343517 -0.1583493 0.8867154 155 147 131
0.0918357564990037 -0.0830239823507695 -0.00339231574991597 0.4804009 -0.162908 0.8617865 188 172 136
0.0894787544971277 -0.0765066825903444 -0.00740723130028562 0.4790123 -0.07155901 0.8748866 185 168 127
-0.0251270212247848 0.179188284914333 0.0145414258058457 0.4036567 -0.01571867 0.9147755 179 156 106
0.0925544768376217 -0.0744718976328336 0.00165532735826621 0.6410049 -0.165108 0.7495679 186 172 140
0.0552098284105097 -0.0805767577060006 -6.20728795432679E-05 -0.01232262 -0.1689117 0.9855542 151 145 129
0.0772699380611394 -0.071032427581367 0.00230145441000026 0.1340321 -0.1833123 0.9738747 150 143 123
0.0926214994911537 -0.0699432005026177 0.000495887809155798 0.4668262 -0.1331717 0.8742646 183 169 132
0.09309756662603 -0.0649346946209692 0.00415986939898824 0.4641502 -0.1286942 0.8763574 184 172 147
0.109354495611878 -0.0976231065256818 -0.0105122009480601 -0.02760423 -0.1349921 0.9904621 176 168 156
0.118168923503001 -0.0930330303899167 -0.00946349116404629 -0.02905244 -0.1348381 0.9904416 166 160 147
0.106131375182089 -0.0862603299253728 -0.00878851552499885 0.01950739 -0.1610433 0.9867545 171 163 150
0.112446917020039 -0.0828494531496744 -0.00841622381401599 -0.02217576 -0.1487279 0.9886295 167 161 146
0.127900692065806 -0.0926387124440753 -0.00920251647064793 0.03055109 -0.1324697 0.9907161 178 167 153
0.117443785365113 -0.0853921908579973 -0.00846166746580071 -0.0304342 -0.1442318 0.9890758 167 160 145
0.124233466066075 -0.079004732387888 -0.00722888996234963 -0.0456748 -0.151209 0.987446 168 160 145
