ply
format ascii 1.0
comment File exported by Rhinoceros Version 7.0
element vertex 470
property float x
property float y
property float z
property float nx
property float ny
property float nz
property uchar red
property uchar green
property uchar blue
end_header
0.0876675802324884 -0.014288739127656 -0.0136075856062895 0.3252591 -0.2159593 0.9206346 227 213 202
0.0875083243303516 -0.0685850008933803 -0.0198336541622079 0.6030744 -0.0003160244 0.7976848 217 200 175
-0.025107193400097 -0.0414857909939165 0.00264343888091453 0.02799062 -0.1929941 0.9808006 182 175 169
-0.0757135828126554 0.0234874150623383 0.00743030855180997 -0.03722976 -0.1687628 0.9849533 195 186 177
0.123516824575107 0.0675439095238897 0.00104938496501088 -0.06223525 -0.1368527 0.9886345 216 206 197
0.0019406457632094 0.149354325871719 0.021118312237117 0.07430187 -0.130706 0.988633 204 196 189
-0.0809476295595548 0.0701945995905446 0.0149953168218778 -0.01517942 -0.1627124 0.9865568 186 177 169
-0.144057886887286 0.0769439546667972 0.0189504996272695 0.04851761 -0.2060833 0.9773309 198 186 169
0.140708839372403 0.115543824139282 0.0042406400821666 0.0116873 -0.0900917 0.9958649 230 212 194
0.0402669104896445 0.0312576923162735 -0.000523746942506842 0.2558842 -0.4132153 0.873943 211 198 182
0.100292790580989 0.198972280856876 0.0148285620118154 -0.043371 -0.1321961 0.9902743 220 210 200
-0.00627153246215872 -0.0769205578571296 -0.0127417558193439 0.4043338 -0.1185671 0.9068936 196 182 161
0.0624457028568637 0.117167266615333 0.0128404996629847 -0.09544638 -0.1068644 0.9896818 199 189 178
0.0332404705331459 -0.159238323627953 -0.0162781921913973 0.201933 -0.04907116 0.9781693 196 187 175
0.138916641320611 -0.185634257899864 -0.0364109480233209 0.3681543 -0.371477 0.8523304 203 188 153
-0.073259127139913 0.0162994643410023 0.00640871831084039 -0.04610411 -0.1709499 0.9842005 190 184 173
0.109683077360723 -0.121645523414349 -0.0239727176884691 -0.0817275 -0.08706386 0.9928446 209 201 195
0.00902212907221411 0.0131854891207206 0.00454171225960359 -0.09102935 -0.1334993 0.9868594 198 189 181
0.0459568614712493 0.188484662271927 0.0196492247567172 -0.03097111 -0.1211092 0.9921559 213 198 193
0.0872444181487229 -0.028962134037232 -0.00457499853388565 0.8109823 -0.1466355 0.5663972 231 216 197
0.0959244502754055 0.106236014629926 0.00439860238257335 -0.001350426 -0.119354 0.9928508 227 214 206
-0.0158287675564823 0.20364204000283 0.0336962891293942 0.2691976 0.4725726 0.8391709 235 186 212
0.0581126168164001 -0.0826136820578832 -0.013873751089602 -0.1682448 -0.1482947 0.9745268 205 195 188
0.0515649331788408 -0.21681724195857 -0.0305041768251842 -0.1502529 -0.06496313 0.9865109 208 197 188
-0.169257205585653 0.120658559433064 0.0282825847768076 -0.02843551 -0.1852108 0.9822873 223 205 162
0.0727206639612117 0.125749799836788 0.0146551126122946 0.08446469 -0.005427987 0.9964117 202 193 182
0.12675973188109 -0.113488752894704 -0.0217276673647073 -0.01117145 -0.06352533 0.9979177 215 207 202
0.00996315522542979 0.190826234000468 0.0255526488839991 0.01373215 -0.1178223 0.9929398 203 193 184
0.036058673454292 -0.13490221803785 -0.0241282227499009 0.5384827 -0.0540347 0.8409023 216 198 170
-0.107488095841599 0.0285834112033119 0.00762734634204247 0.008890636 -0.1739199 0.9847197 195 186 178
-0.0803644411774389 0.148695981660601 0.0281953426256564 0.05775707 -0.1629959 0.9849347 182 176 150
0.100689129517518 -0.149292164803457 -0.0268872237727011 0.1303916 -0.03256346 0.9909277 223 212 202
0.138006449407961 0.0233558024319356 -0.00356177779614639 0.004436397 -0.1774036 0.9841282 204 196 186
-0.0163469922063877 -0.130301915539034 -0.0210938841876064 0.7811272 0.07220618 0.6201828 206 189 150
-0.0426508755900539 0.156336545400249 0.0284477533946605 -0.02021388 -0.1442912 0.9893288 185 177 164
0.0458638712936503 -0.12151416038915 -0.0217578640368649 0.2286216 -0.1553874 0.9610343 220 206 193
0.0703650763988479 0.150593652486888 0.0179221528733001 -0.04450271 -0.1048736 0.9934893 206 197 191
-0.077347641873919 0.03263257025852 0.00907299585503843 -0.03428342 -0.1598465 0.9865464 191 184 176
0.112227614322621 0.170255426046211 0.0117664700074401 -0.0493114 -0.1121945 0.992462 215 205 197
0.113393225744243 0.0402506676191101 -0.00373726382202785 -0.04778262 -0.1315833 0.9901528 221 210 202
0.0680735737074576 0.152498239684919 0.0178136700006445 -0.09419307 -0.09906103 0.9906132 204 194 185
0.0860889616013685 0.138481289222404 0.00742042869659335 0.4021764 -0.03586232 0.9148595 231 216 204
0.088151701299175 -0.0553214179728021 -0.0183087143945623 0.4031993 -0.2457521 0.8814966 226 211 193
0.0316455158375808 0.11287337016639 0.0100151089895237 0.4784151 -0.116308 0.8703973 213 196 169
-0.000592536417905798 0.12100431923057 0.0176132662189098 0.08459703 -0.08339803 0.992919 209 200 191
-0.107540895952698 -0.00556809397451863 0.00118542178402521 -0.003106351 -0.1925602 0.9812803 194 184 175
-0.0122597173863142 -0.123947608740115 -0.0205323536866328 0.4335046 -0.1107773 0.8943166 205 190 157
0.138349882487402 -0.123527492818094 -0.0212920199252957 0.1211401 -0.09255787 0.9883108 233 221 206
-0.109932274524154 0.198934578097723 0.0320123758203915 -0.001110388 -0.01085997 0.9999404 212 195 165
0.0548297041489878 -0.0713401336416093 -0.0125850359113118 -0.1297912 -0.1525184 0.979741 205 195 185
-0.0216395386677366 -0.0200349259573985 0.0067299105853612 0.2165567 -0.1130323 0.9697046 185 176 169
-0.0348322214270294 0.0334364816461756 0.0125660061651998 -0.1006094 -0.1273988 0.9867357 197 188 182
-0.0499226630073863 0.045570641514171 0.0126766571298828 -0.08058813 -0.1480423 0.9856921 185 178 171
0.125275390715007 0.0783637956106911 0.002244082215479 -0.05504264 -0.1238267 0.9907761 219 208 199
-0.0745964079288912 0.0481870484910241 0.0115551261069402 -0.0403179 -0.1642092 0.9856012 190 181 173
-0.0526323813033711 -0.0892987775179159 -0.0108712244096526 -0.1109761 -0.1810694 0.9771889 192 180 166
-0.167791233601711 0.16477462882856 0.0371951758401312 0.01371851 -0.1739518 0.9846586 219 203 170
0.0369081982253086 -0.192561926776555 -0.0298248697968459 0.327523 -0.3521303 0.8767742 215 202 180
0.113289591243625 0.142578492207219 0.00872171368456293 -0.05448305 -0.1038594 0.9930986 220 208 202
-0.0381064818400496 -0.222212349679965 -0.0269119315472861 0.09628249 -0.1865641 0.9777134 176 165 149
-0.0601316702095032 0.20294345910253 0.0367705030168602 0.1237462 0.2981735 0.9464563 196 186 176
0.095667641113347 0.0706304373975224 -4.55879151013278E-05 0.06558235 -0.1354961 0.988605 224 212 201
-0.146978735547761 0.173506986827932 0.0372688223637787 0.08038534 -0.1807681 0.9802352 189 180 169
-0.12798506073589 0.190384911764985 0.0392317217168323 0.1450318 -0.1507645 0.9778731 186 178 171
-0.142706592327457 0.0748675256977633 0.0182611166780748 0.05054501 -0.2066421 0.9771101 197 185 168
0.085666931229059 -0.121308724559035 -0.0248261098662547 0.5135123 -0.0514968 0.8565356 233 214 194
0.0194196026564324 -0.225464435232872 -0.0287275083885789 0.4358789 -0.3456665 0.8309779 214 200 180
0.069908419152112 0.162940838185977 0.0188113966324997 -0.08259231 -0.07746689 0.993568 202 192 180
0.0806700163017009 -0.166633321911088 -0.018872945995829 -0.02899093 -0.09823183 0.9947412 201 193 180
0.105531103804224 -0.147552194362161 -0.0266266599540009 -0.07655032 -0.0507462 0.9957735 220 210 202
-0.10797443569467 0.181751631630512 0.0359801486994269 0.05830484 -0.199012 0.9782611 182 172 163
-0.107395869629679 -0.0293270273715472 -0.0034453814537431 -0.01739184 -0.1855551 0.9824799 198 188 182
0.0301207106050718 0.21086329169647 0.0219819088733422 0.1261216 0.6347716 0.7623374 211 198 184
-0.0735015816253242 -0.00606489502072005 0.00252887881836925 -0.04885639 -0.1718164 0.9839168 193 184 175
0.0352072218771822 0.0669234714192963 0.0113374170808209 0.4670929 0.03081539 0.8836711 227 212 194
0.111077631353693 0.100426538878832 0.00423026563147511 -0.04631302 -0.1077498 0.9930987 220 210 200
0.0843806588119076 0.154426423054396 0.00926683448903605 0.6364312 -0.3547646 0.6849069 223 208 187
0.0235889231979254 0.205015147116048 0.026722477201957 0.1338945 0.3766555 0.9166259 243 176 226
0.0604658971122118 -0.0104347437392086 -0.00219212875272923 -0.1987329 -0.1480976 0.9687994 207 198 191
-0.137975489784396 0.194354298538912 0.0410794923389401 0.07482956 -0.1839782 0.9800779 197 188 182
-0.0872180112042464 0.132373429623969 0.0258860611438699 0.05414145 -0.1608415 0.9854941 186 173 152
0.0913841956010204 0.12269065225633 0.00597863905888506 0.2288027 -0.1270622 0.9651448 220 208 198
-0.136800191301743 0.0765324306768753 0.0182923923259155 0.08144667 -0.2000433 0.976396 214 201 191
-0.0118536708137293 0.137962611889742 0.0198305078822117 0.5849695 -0.08008247 0.807092 211 197 177
0.0735039211374415 0.190322453283157 0.0209554677446538 0.2371948 -0.05004141 0.9701724 210 199 184
0.109595809529872 0.0801398542832721 0.00182123275778591 -0.04736667 -0.1293446 0.9904677 220 210 202
-0.0107838357784082 0.0235335974841095 0.0105498777384314 0.4033535 -0.02289927 0.9147577 213 195 164
-0.0110186399928889 0.0915008305283362 0.0205881041425587 0.5161237 -0.08814036 0.8519669 222 209 192
0.00828425762128493 -0.0639621309823654 -0.00809039216052707 -0.1352211 -0.1698946 0.9761409 192 182 173
0.0886398414294485 0.186629727095901 0.0128219569047778 0.1785439 -0.02839684 0.9835221 223 211 203
0.0178922638389833 0.208226755194519 0.0257200923015621 -0.02780463 0.5879756 0.8084007 220 183 192
0.00475370709602441 -0.237893623652659 -0.0299953067492061 -0.003662508 -0.2085889 0.9779965 185 178 171
0.110294795058167 0.204154878249265 0.015978826107377 -0.05107681 -0.1220073 0.9912141 216 205 197
-0.0115738077902989 0.163434149289149 0.0230599923648292 0.4672741 -0.08433003 0.8800814 215 199 180
-0.104367344968865 -0.0237516351346904 -0.00220015544096339 -0.01692762 -0.186334 0.9823406 185 176 168
0.0762275130834444 0.189601109184572 0.021147778560148 0.3611028 0.01470592 0.9324101 213 203 194
-0.0294606118444731 0.178143260819973 0.031779945302827 0.01650925 -0.12278 0.9922966 197 188 176
0.0204118280382755 -0.181851975060801 -0.0214509985742035 -0.2073615 -0.1052356 0.9725876 193 185 175
-0.116506842903775 0.0848828427249306 0.0177496835173577 0.05946729 -0.2050916 0.9769346 193 186 179
-0.0173081580389161 0.208562142561807 0.0295849753428834 0.2201285 0.6229949 0.7506136 207 192 168
0.0464420161613521 0.0745742844242718 0.00677687015586272 -0.001121462 -0.06075459 0.9981521 208 197 190
-0.117844496462384 -0.00898336624262763 0.000967966790720351 -0.004862143 -0.2003923 0.9797037 182 169 158
0.0283106931914725 -0.201116425107758 -0.0308259640562038 0.4765915 -0.3296681 0.8149721 211 195 164
0.13504038694421 -0.169370513392213 -0.0256218242046549 0.1203714 -0.2533582 0.9598544 221 210 195
0.134684555670656 -0.00379360804516038 -0.00845995123373017 0.04509712 -0.1163357 0.9921856 214 204 197
-0.0622264441107854 -0.00537699027636018 0.00337734316835758 -0.07508735 -0.1690677 0.98274 181 173 165
0.0229125181129337 0.0608594085561887 0.0117210642588861 0.1032672 -0.1815299 0.9779482 197 188 180
0.036790386360507 -0.220895704509196 -0.0321841055384538 -0.04005758 -0.08903176 0.995223 205 195 182
0.0808687619005024 0.00109918635637019 0.00242868915930777 0.3496625 -0.1908213 0.9172368 200 190 177
0.134085918850869 0.0645984064198859 0.00151835635229938 0.05179426 -0.1388705 0.9889552 222 212 206
0.034802679315133 -0.132707536541052 -0.0133067251782615 0.6087791 -0.1056065 0.7862794 196 187 177
-0.0117154243259234 0.123937744676457 0.0187705832917294 0.478813 -0.150104 0.8649896 211 198 177
0.0844141451532874 0.172962017984051 0.0112075106264871 0.5240939 0.1483546 0.8386396 231 217 203
0.0856980125674225 0.0811599536369338 0.00609040887416409 0.4946565 -0.04624582 0.8678573 227 210 188
0.105702315854842 -0.144308376327313 -0.0261803360625667 -0.06882183 -0.05646958 0.9960295 223 211 204
-0.0543441316728446 -0.0493462781964024 -0.00371106378872099 -0.1149026 -0.1729647 0.9782028 192 186 177
-0.0588196771514342 0.0853597647119804 0.0181282471546893 -0.02628642 -0.1410695 0.9896507 188 180 174
0.0248657453904633 -0.216028519638546 -0.0320520235927276 0.4417623 -0.246282 0.8626652 202 186 162
0.072696927289484 -0.221181745142956 -0.0358423550463935 0.1442387 -0.1884713 0.9714287 248 181 221
-0.00591065756645204 -0.0607860719373775 -0.00970526171611395 0.1481321 -0.1186998 0.9818183 205 194 183
0.12070879487389 -0.00376296917616037 -0.00993517573771464 -0.08563688 -0.1552468 0.9841568 209 200 194
0.00515672080884233 0.0382069017755227 0.00714149372423804 -0.06131322 -0.1191409 0.9909824 200 191 185
0.040580963806609 0.0487190877934931 0.00220989781123541 0.3847042 -0.2048011 0.9000329 219 206 194
-0.0173882831118597 0.0190495037763748 0.0125109748516547 0.2589745 -0.1362344 0.9562283 193 185 178
0.0109262132066164 0.0692979838060759 0.0118382431272305 -0.08400346 -0.1480298 0.9854088 195 187 178
0.0405455826294165 -0.0412481984548047 -0.00293314546072121 0.6114069 -0.1090923 0.7837605 227 213 194
0.0766262409226863 0.010957414100135 0.00271808571081356 -0.03857343 -0.1188215 0.9921661 200 191 182
0.0370053666270156 0.0790157591072498 0.00609731560859256 0.4291019 -0.1130138 0.8961582 219 205 190
-0.0522604502032493 -0.146108090155806 -0.0197800398862856 -0.09575509 -0.136759 0.9859655 192 183 171
0.100015729161096 -0.0636326341949637 -0.0191278560879345 -0.03588232 -0.1024189 0.994094 224 211 202
0.0981771439222987 -0.0252775137233254 -0.0146200102311648 0.0142207 -0.1406319 0.9899598 209 200 192
-0.0685257012181859 0.191595736477032 0.0351151085913697 0.05685171 -0.0950207 0.9938506 190 180 169
0.0935533596854921 -0.167463754113175 -0.0284292418562829 0.5558817 -0.1117736 0.8237125 226 213 197
0.0461374515665405 0.0674838545785736 0.00564346128861994 0.07619562 -0.07525143 0.9942492 208 197 187
-0.0535922332424947 -0.0381282006736132 -0.00191172526247579 -0.1579106 -0.1822517 0.9704888 189 181 174
-0.0890646331205547 0.0372932275144762 0.00913178370352045 -0.02789341 -0.1599164 0.9867364 201 191 185
-0.154944804745181 0.0868707858824929 0.0213763353702339 0.002440547 -0.2409588 0.9705323 194 185 178
0.0994211158741347 -0.12513930792769 -0.0251106221153711 0.04430799 -0.05139858 0.9976948 227 216 208
-0.0282561039814597 0.15579407435863 0.0288961164485115 -0.009890338 -0.1269781 0.9918562 189 181 173
-0.0970702543929427 0.0443008638658839 0.0103054041256124 -0.01000382 -0.1619571 0.9867471 190 183 175
-0.0108845876233721 -0.0977760941659701 -0.0166257665403243 0.6879392 -0.181842 0.7026188 187 168 128
0.049497855477763 -0.16686071392738 -0.0258737026542796 0.2049405 -0.02845253 0.9783608 216 204 189
0.0730129167584188 -0.224779061005825 -0.0362829717263661 0.1100266 -0.06402208 0.9918646 248 177 224
0.0580515198961109 0.120925362448984 0.012517570281325 -0.09454116 -0.1069907 0.989755 198 188 176
0.0549299814010968 0.197088735019054 0.0209662964076566 -0.03136691 -0.1040243 0.99408 205 194 180
0.0467547121817464 -0.0108984016288375 -0.00561675698031949 0.09007549 -0.108829 0.989971 204 192 182
0.0258228039549921 -0.135041355584535 -0.0149276372576121 0.03058526 -0.05979601 0.9977419 199 191 183
-0.0721560948569326 -0.0958460254481666 -0.0135953056563471 -0.04249366 -0.1615731 0.9859455 189 178 170
-0.10946972357054 0.023089284066055 0.00703697586505884 0.01301055 -0.1785824 0.9838389 186 177 166
-0.129105785214796 0.0423227876974455 0.0110484766964509 0.04019687 -0.1993083 0.979112 188 180 173
0.0458417179962298 -0.0380102541529217 -0.00970419975068384 0.246787 -0.1599342 0.955781 208 196 180
0.108922049735514 0.180275776725944 0.0127584357167671 -0.04125191 -0.1193931 0.9919897 223 212 204
-0.00174102041380753 0.204558528699905 0.0143566644268054 0.1178471 0.5655394 0.8162581 240 186 210
-0.140068660838981 0.154203103428417 0.0333757774024314 0.1059846 -0.1500123 0.982987 183 174 158
-0.0131945863075735 -0.164450221605389 -0.0247689273914331 0.5724314 0.02198596 0.8196577 211 194 161
0.0267636995551692 0.127176834715845 0.0192085696450285 0.2658585 -0.122071 0.956252 198 189 175
-0.0445966313043611 0.0765939336675658 0.0177127994100853 -0.06356221 -0.1331548 0.9890549 187 181 175
0.0858703260748088 0.0938359758593856 0.00287963061970375 0.6195372 0.04965553 0.7833952 230 215 201
-0.056155669128402 0.061945014546092 0.0146129960737202 -0.06100069 -0.141114 0.9881122 192 185 180
0.049556485197356 0.109213483630586 0.0108138827349197 -0.09265603 -0.11562 0.9889625 203 193 183
-0.0546465369060636 0.0146066243991574 0.00781997062471711 -0.1105491 -0.1521315 0.9821583 178 172 157
0.0839547880540001 0.14848046118684 0.01819736978415 0.6680951 -0.2048596 0.7153192 192 170 129
0.0411818669023356 0.212184328012083 0.0185301231513597 0.1193622 0.456909 0.8814685 222 209 194
-0.0104852430458768 -0.0524004496327374 0.0022195162429441 0.5811796 0.001562547 0.8137739 220 206 190
0.0429941376428067 -0.195039083999414 -0.0294313660311234 0.1112067 -0.1634148 0.9802697 208 196 184
0.0478581062542602 -0.237372599210268 -0.035845213664278 -0.028522 -0.2042734 0.9784983 195 183 170
-0.0572655487941782 -0.0293518923820004 -0.000732864477788864 -0.1343793 -0.1837633 0.9737419 179 173 163
-0.0917651622971398 0.108328465218164 0.0222727335602075 0.0306317 -0.1876596 0.9817564 185 172 160
0.0711845786987499 -0.175596319065226 -0.021332251089983 -0.205101 -0.1065401 0.9729249 197 187 179
0.0653460641937578 0.116794670897191 0.0130991382135116 -0.0928522 -0.103257 0.9903113 199 189 175
-0.0292548068739755 -0.0552784647925926 -0.000641297572453015 -0.05710449 -0.2237254 0.9729779 196 189 186
0.110563134405079 -0.215684790476431 -0.0371783031116324 0.2114266 -0.193997 0.9579478 221 208 187
0.0978178473703029 0.150549767670477 0.00884010414671797 0.04085667 -0.07394774 0.9964249 219 208 199
0.00731581324862152 0.0208465863854508 0.00499345461100741 -0.08772727 -0.1274571 0.9879568 200 190 185
-0.168903057154974 0.123013294942776 0.0294913997538831 -0.02843551 -0.1852108 0.9822873 224 207 168
0.102067778392315 0.212265811864314 0.0166940468238308 -0.06835756 -0.08053175 0.9944053 217 206 197
0.0329251584714836 -0.198787802213046 -0.0254060093988834 0.5477362 -0.3917138 0.7392871 215 201 180
-0.131100649336255 0.0704943590321363 0.016456011018155 0.0895988 -0.1764477 0.9802236 193 183 172
0.131951203130606 -0.123906286740321 -0.0218912182164068 0.07430713 -0.07986886 0.9940319 225 216 209
-0.0520818561938938 -0.106374446495001 -0.0137586692969265 -0.1020217 -0.1643376 0.981114 186 176 166
-0.168774676988264 0.182797680473323 0.0387823796626696 0.00985092 -0.1983534 0.9800811 220 199 158
0.0372766494987129 -0.234880421411557 -0.033291110980131 -0.05878593 -0.1476624 0.9872892 245 165 222
-0.00561493986374995 -0.0526370872584739 -0.00825309218959913 0.5208842 -0.08882263 0.8489937 202 189 176
-0.091412707412954 -0.0184671750996804 -0.00111865809166517 -0.04639325 -0.1951326 0.979679 203 192 189
-0.112624338506749 0.138381757995957 0.0281665142446213 0.04332049 -0.1785502 0.9829767 180 170 157
0.0141631075435722 -0.238305505923652 -0.0288976537862841 0.1940781 -0.3825033 0.903341 215 202 181
-0.150140767417139 0.156675792739972 0.034676794630687 0.08383054 -0.1528154 0.9846928 189 179 169
0.0411014071341587 -0.0511714403963168 -0.00612417433098025 0.6813777 -0.08337836 0.7271674 198 182 138
0.00665944606882896 0.0995995858089536 0.0148172438517184 -0.03652217 -0.1243387 0.9915674 198 188 181
-0.0480936530878786 -0.145721176260068 -0.0192721201586361 -0.1289469 -0.1392313 0.9818286 187 177 168
-0.0888643097149986 -0.0540952752705376 -0.00745268066688107 -0.05912801 -0.1839985 0.9811465 183 169 153
-0.134706702048592 0.179400080238225 0.0374398372421702 0.08847439 -0.2092208 0.9738578 169 157 146
0.12195460884905 -0.0878459358001854 -0.0197805741919099 -0.08055176 -0.08758226 0.9928951 224 214 208
0.109107460904161 0.0723325932681456 0.00052973254260047 -0.04818564 -0.1427072 0.9885913 224 212 204
-0.101181457445914 0.0798299344672273 0.0166592785260545 -0.002533809 -0.1821346 0.9832703 200 189 183
-0.0923985057836774 0.142260863922083 0.0280153120721531 0.0511295 -0.1613558 0.9855709 182 174 161
0.11316376014582 0.182645068514374 0.0133639694942403 -0.04725655 -0.1218204 0.9914265 220 209 200
0.0274809292275489 -0.17480885893029 -0.0186427039492712 -0.08980812 -0.07820823 0.9928837 196 186 176
0.0820838020875163 0.176776983749156 0.0114704565309112 0.5605861 0.07111982 0.8250365 225 208 183
0.0824202311723692 0.191877693602664 0.0132711566815258 0.4550246 -0.07556927 0.8872665 228 212 194
0.125353788331861 0.109914693192764 0.00580515161890489 -0.03947148 -0.1053261 0.9936541 215 205 196
0.0776765244623396 0.0729742210585882 0.0102977726449771 0.1861232 0.001122556 0.9825258 200 191 182
-0.0357743949095113 -0.0936760549906375 -0.0092664700021518 -0.1799977 -0.1593681 0.9706712 201 190 183
-0.0356852212868564 0.0155493114958538 0.0101678683982897 -0.11021 -0.1242207 0.9861151 192 184 176
-0.0222318639571428 -0.242842621221223 -0.0348948048814579 -0.07592057 -0.1368113 0.9876835 181 142 140
-0.0276064554237836 -0.24176737199947 -0.0330656406711599 0.01168698 -0.1248297 0.9921094 167 153 127
-0.0228875764542442 -0.237836520274341 -0.0321457799069865 -0.08448291 -0.1287017 0.9880782 181 159 155
-0.0127178460088153 -0.241229875022882 -0.0311456036002653 -0.05904118 -0.1481164 0.987206 211 148 182
-0.0114518368175789 -0.240022413884972 -0.0314316145668461 -0.05542795 -0.1379833 0.9888824 231 150 206
-0.00757354289334966 -0.236702964599691 -0.0311433657238475 -0.06388307 -0.1116072 0.9916969 217 169 194
-0.0188468198144918 -0.234509987583927 -0.0310991940894817 -0.0787416 -0.1287936 0.9885403 194 170 171
-0.011236007196441 -0.234198961139538 -0.0310835981895604 -0.02255588 -0.1158865 0.9930063 204 169 179
-0.0273136449806257 -0.234531794846288 -0.0323075296802805 -0.02188647 -0.1566558 0.9874107 183 173 158
-0.00185296494596177 -0.241761335511935 -0.0339300311953109 -0.06026754 -0.1251413 0.9903068 177 162 142
0.0197930846354648 -0.235238960526898 -0.0350021177443969 0.2572016 -0.3483364 0.9013929 199 187 164
0.015989914841013 -0.234506283701467 -0.0320392082976275 0.2307452 -0.3549461 0.9059635 210 196 171
-0.00167495549245622 -0.238910428328458 -0.0312796986495949 -0.09378592 -0.107802 0.9897388 191 182 171
0.00279031693072618 -0.240437121823315 -0.0303817618985404 -0.004548087 -0.2024983 0.9792721 180 169 153
-0.00548460511683135 -0.236132381453521 -0.0312348904113971 -0.06933114 -0.1091395 0.9916056 189 177 169
-0.00325429950949729 -0.230303993795738 -0.0304806345041567 -0.07615396 -0.1059409 0.991452 189 180 168
0.00244311652516771 -0.230870893556267 -0.0296683100485143 -0.09740448 -0.1352149 0.9860169 184 178 166
0.00637534567651787 -0.233714153460977 -0.0289326706341207 0.007943595 -0.2132368 0.9769682 186 178 165
0.0171106151159703 -0.230946262382309 -0.0280738508693686 0.2437809 -0.3850097 0.8901339 211 197 178
0.0105703253125444 -0.229714221418144 -0.0278095766480958 0.08960681 -0.2033706 0.9749928 185 177 167
0.0049781436087839 -0.226542079432512 -0.02870182997047 -0.09990942 -0.1268551 0.9868768 186 178 164
0.00987570955567829 -0.226453583966234 -0.0272523550425843 -0.0003572322 -0.1859253 0.9825638 191 184 173
-0.00506915275074959 -0.226304683539385 -0.0301824772751949 -0.078606 -0.08649302 0.9931465 186 178 163
0.0622708091674351 -0.235255717130599 -0.0337471947537343 0.222994 -0.275751 0.9350054 214 198 179
0.0637474067296386 -0.232282058636068 -0.0352517359753147 0.258044 -0.1614788 0.9525428 214 188 174
0.0710713883072538 -0.231377206602716 -0.0373376094451349 0.2795607 -0.04007775 0.9592912 249 176 226
0.0852572743897966 0.122797693439813 0.00996772066005734 0.58356 -0.08637807 0.807463 220 204 176
0.0670748513876234 -0.226679935195839 -0.0374963486109954 0.3888402 -0.0497879 0.9199589 248 174 222
0.0405402234706989 -0.237122321715728 -0.033492882524528 -0.07372079 -0.1453492 0.98663 222 160 193
0.0446067002885515 -0.236701484213797 -0.0332290888900743 -0.03194725 -0.1678801 0.9852896 224 164 196
0.0427632583216715 -0.235088399435543 -0.0330753643377584 -0.07503982 -0.1327549 0.9883042 236 163 212
0.0589399813655049 -0.23570150595472 -0.0306631852038458 0.1381477 -0.289919 0.9470281 193 185 168
0.0519244472044784 -0.233099228898809 -0.0318362198757778 -0.01804894 -0.2146163 0.9765317 204 193 182
0.0641030788679897 -0.230944340820191 -0.0300132134959372 0.3331017 -0.16826 0.9277564 213 197 177
0.066234151600371 -0.226550275455016 -0.0350901811997394 0.5085604 -0.169086 0.8442608 238 181 203
0.0681908561802818 -0.222461553273659 -0.0315363284562969 0.5214837 -0.2217922 0.8239314 223 200 191
0.0679012532354601 -0.222379147511956 -0.0292818091192223 0.5214837 -0.2217922 0.8239314 218 199 186
0.0223189403579065 -0.236485006674766 -0.0350750124921734 0.1885528 -0.3172965 0.9293927 196 186 169
0.117294512364474 0.0850170349073485 0.0029220715628293 -0.04545795 -0.1236519 0.9912839 218 207 201
0.0267104255311903 -0.231358293381963 -0.033647583358705 0.1389669 -0.3139061 0.939229 212 175 186
0.0231535736628938 -0.228815149572114 -0.033812561143584 0.2822835 -0.2703098 0.9204611 200 187 170
0.0349889808225994 -0.230510616360492 -0.0326420553124891 -0.04944639 -0.13526 0.9895756 239 164 214
0.0405039702190662 -0.230556264199314 -0.0329062098829805 -0.05958528 -0.136979 0.9887802 245 168 221
0.0189222029283069 -0.228556735674745 -0.03404795196795 0.305995 -0.337328 0.8902679 204 190 168
0.0201838431776791 -0.223275231804467 -0.0332631866364452 0.4780322 -0.3220657 0.8171651 199 185 150
0.0434338476673259 -0.178042024981588 -0.0229729863853997 0.5106751 -0.2425952 0.8248385 209 194 152
0.0192293243476724 -0.225002201040572 -0.0260024187017736 0.3582639 -0.2946832 0.8858944 205 193 175
0.0221718179461963 -0.220625796699084 -0.0301116020971559 0.4851854 -0.2997368 0.8214335 210 195 172
0.023555965213327 -0.217023976203788 -0.0257877418473725 0.4711692 -0.2605402 0.8426852 215 201 182
0.0285557014985356 -0.218691811004047 -0.0324141669944183 0.3481786 -0.1781511 0.9203444 206 194 177
0.0352068790337183 -0.216691707818923 -0.0317900479688131 0.111517 -0.1422338 0.9835311 201 189 168
0.0248994445462998 -0.214791663390101 -0.0294531456448111 0.5148625 -0.3469545 0.7839255 209 193 166
0.0271906485911257 -0.216769510461107 -0.0321101387585229 0.3954703 -0.2728837 0.877005 208 196 178
0.0291701856219504 -0.21102100730831 -0.0315547514688528 0.4103611 -0.1978036 0.8902121 207 194 175
0.0371581832240562 -0.206716998316178 -0.0311028783591001 0.2773629 -0.2558818 0.9260639 214 202 187
0.0492093083294032 -0.220456389408638 -0.0309064804172727 -0.1458546 -0.08167073 0.9859292 195 187 169
0.0685404633456237 -0.223544101769999 -0.036655939439287 0.452672 -0.1439904 0.8799744 249 180 220
0.0685384873548784 -0.219162393359763 -0.0361288382715582 0.4365936 -0.3033717 0.8469661 233 189 196
0.0612190096465914 -0.220878378417725 -0.0284394481662008 0.2288745 -0.1959727 0.9535257 196 189 177
0.0447391408324602 -0.216734175075834 -0.0312686035402391 -0.1160406 -0.08500353 0.9896004 200 190 179
0.0488764615978914 -0.215646010395604 -0.0306925591753727 -0.1365624 -0.06940546 0.9881971 197 188 176
0.0555001081438133 -0.217631760348902 -0.0296674702227665 -0.01790092 -0.1549694 0.9877571 181 173 151
0.0573421139869597 -0.210863287322177 -0.0289510833154595 -0.06434617 -0.1225395 0.9903755 200 192 180
0.0629975776816538 -0.20906445829639 -0.0276618377056791 0.2021326 -0.2176557 0.9548656 191 181 167
0.0428815275505112 -0.212460407200076 -0.031178855655073 -0.08764148 -0.08320399 0.9926712 200 189 176
0.0388536768515513 -0.207486835511194 -0.0310928449750684 0.1671533 -0.1182725 0.9788112 207 196 179
-0.0604797076714494 -0.17007995196762 -0.0240224264061423 -0.07148272 -0.1254098 0.9895265 200 191 188
-0.0598034205674853 -0.00220671154972274 0.0038648695592472 -0.07525314 -0.169523 0.9826489 184 175 170
0.0432496148304269 -0.200910922690052 -0.0299635451921047 0.09435616 -0.2149748 0.9720508 208 196 183
0.0569677348854034 -0.199344574493073 -0.0279972256822419 -0.1892418 -0.09687186 0.9771404 204 194 182
0.047834136923651 -0.052725762861758 -0.0115128036678595 0.2964839 -0.1708245 0.9396362 208 196 184
-0.00658825787959394 0.0990625941975556 0.014862900623249 0.2801594 -0.07757533 0.9568139 214 204 195
-0.0169014202159641 0.000988544445201023 -0.000470726943179955 0.4735402 -0.2017484 0.8573548 205 189 164
-0.0670020004511036 0.0841105174506536 0.0176756489281628 -0.01643795 -0.1520643 0.9882339 185 176 168
0.114050907737608 -0.0739185540212374 -0.0190550375039599 -0.07421605 -0.09391044 0.9928105 214 205 198
0.119992984419958 0.120115859270662 0.00699669094787782 -0.06222104 -0.1071647 0.9922924 215 204 195
-0.0169972842286787 0.0272358036042928 0.0134829829521319 0.361085 -0.1347476 0.9227463 189 182 170
0.0632045117537157 0.0247081452923343 0.00248866084493583 -0.1567647 -0.1223818 0.9800242 199 190 181
0.040103042019072 -0.176891760517065 -0.0174368764188379 0.4456618 -0.2599974 0.8566136 210 200 185
0.0800035180943333 -0.232352487278379 -0.0363778567552497 0.01316434 -0.06140972 0.9980258 217 180 184
0.0782554613428026 -0.227250363143389 -0.0360216506577878 -0.04830871 -0.1366093 0.9894464 245 174 219
0.0832627271611104 -0.226797753645343 -0.0352453207594062 -0.06630339 -0.1394403 0.9880083 201 190 179
0.0928469481202354 -0.229314708585786 -0.0352469572614284 0.008205894 -0.1526307 0.9882492 207 197 184
0.0968603114124464 -0.229360053886672 -0.0349160549727481 0.05424102 -0.1483422 0.9874475 204 195 179
0.0851609864078062 -0.221465252445844 -0.0343368047822362 -0.07896569 -0.122584 0.9893117 204 194 182
0.0925384442735808 -0.223424244821551 -0.0341500435200783 0.0202597 -0.1512087 0.9882942 209 199 185
0.0963606520601967 -0.219147375659175 -0.033655056292873 0.003479891 -0.141782 0.9898918 201 192 177
-0.123500795173972 0.000722512217232518 0.0024864562955213 -0.01614877 -0.1943519 0.980799 201 191 186
0.102896851585642 -0.231044371668666 -0.0351278848245956 0.09515243 -0.1872998 0.9776834 213 202 182
0.0988960605722378 -0.223422223165636 -0.0343138259241875 0.0770054 -0.1723743 0.9820169 203 193 177
0.107945662588016 -0.223260557999506 -0.0378290027391529 0.151698 -0.1997366 0.9680356 225 211 191
0.107945696521669 -0.222967408974652 -0.0388212391375969 0.1689814 -0.1988215 0.9653576 218 203 179
0.102832636677393 -0.221219957824761 -0.0335711783868889 0.1413409 -0.1916365 0.9712354 203 195 178
0.0990158939594235 -0.213513857499045 -0.0331340132702456 0.02924233 -0.1431659 0.9892666 204 194 182
0.10705215086742 -0.213207556177975 -0.0324208384383284 0.1422439 -0.2204988 0.9649596 207 198 185
0.112346881414273 -0.209466620489847 -0.0333491647073906 0.2046067 -0.2331088 0.950682 221 209 194
-0.075206097433834 -0.0237568882494222 -0.000846595658463747 -0.05584458 -0.1935297 0.9795038 188 178 169
0.11673698810224 -0.203546666531635 -0.035433014118095 0.2137494 -0.2672156 0.9396313 224 210 193
0.0709127017292746 -0.217052264969333 -0.0356029342411496 0.3952514 -0.3462597 0.8508117 215 197 182
0.0806361073526674 -0.215156363193846 -0.0341956986858572 -0.07740149 -0.1481261 0.9859349 208 197 181
0.0715615021288665 -0.21340598092903 -0.0312558600654443 0.3897614 -0.3742349 0.8414477 222 206 189
0.0749058341728848 -0.211343713181698 -0.0347545534701235 0.2259726 -0.4579566 0.8597745 215 202 185
0.0731666578794723 -0.206883987590958 -0.0341813658065677 0.3721776 -0.4336948 0.820605 215 199 175
0.0866542988820491 -0.215483155256753 -0.0334667551672531 -0.06912735 -0.1068018 0.9918744 201 192 177
0.0931577735208702 -0.213352178719041 -0.033285422489279 -0.03920834 -0.1020923 0.9940019 214 204 191
0.0908159548483187 -0.209751085518404 -0.0328288586857142 -0.04330543 -0.1022502 0.9938157 210 201 188
0.0808370043721771 -0.208909786036859 -0.0336988254545505 0.01553286 -0.2500795 0.9681007 214 202 185
0.0906043661041318 -0.204910572673243 -0.0321499106246932 -0.03631916 -0.1122524 0.9930158 211 201 191
0.0748775150051406 -0.203487457723574 -0.0333607757716802 0.3955713 -0.4757755 0.785596 216 200 179
0.0690573345285026 -0.209415825767046 -0.0260824887699823 0.3074134 -0.4007559 0.8630711 198 189 178
0.0691360750312047 -0.207799019756468 -0.0258388357007903 0.1999774 -0.4356957 0.877598 194 185 174
0.0755566039658975 -0.20592588209749 -0.0306079871151166 0.3955713 -0.4757755 0.785596 216 201 175
0.0698826880538004 -0.204706472146821 -0.0253500879999337 0.2164571 -0.4404848 0.8712747 193 185 172
0.0799572278334066 -0.198698602590651 -0.0239661221040305 0.4443966 -0.3936098 0.8047254 220 208 188
0.0817153077080679 -0.19553849201566 -0.0256462892884127 0.5339369 -0.2975949 0.7914219 219 205 189
0.0688719037570742 -0.198713877165586 -0.024844287521339 0.05886894 -0.3656333 0.9288954 196 188 178
0.0790280755316584 -0.199187836131141 -0.0291726979643112 0.4268966 -0.4402288 0.7899101 211 198 171
0.084955597372673 -0.197200593665514 -0.0315719113095911 0.3255906 -0.1920696 0.925797 217 206 194
0.0744991369500436 -0.195470067851267 -0.0232555975933651 0.4359439 -0.3871312 0.8124545 197 189 181
0.0832699229456457 -0.189293623691396 -0.0307646185877021 0.5608911 -0.3080238 0.7684546 218 203 185
0.0972091586863275 -0.207454243681074 -0.0325960735099062 -0.0476858 -0.09989175 0.993855 207 199 187
0.104430200841634 -0.210744903259912 -0.0321627309638278 0.05644796 -0.1880877 0.9805288 207 197 186
0.0948865389066853 -0.205335900779816 -0.032294146737987 -0.04204967 -0.1041318 0.9936742 211 201 191
0.0947344351603325 -0.197990291731711 -0.0317079920337253 -0.03302345 -0.1052428 0.9938981 213 203 193
0.0971568852157683 -0.197202473412943 -0.0314128171825386 -0.04163731 -0.1074771 0.9933353 214 204 195
0.106964978488592 -0.201378153762794 -0.0312009733524437 0.08311106 -0.112759 0.9901404 208 197 187
0.116182778083362 -0.202919608969465 -0.0335854846602239 0.2014134 -0.2728221 0.9407448 223 213 197
0.115445054028867 -0.199494430209318 -0.0299203337542608 0.1551542 -0.2351204 0.9595028 212 202 187
0.101313926637187 -0.193412939898443 -0.0305720299436612 -0.07312541 -0.09996035 0.9923007 210 201 191
-0.000617326874447599 -0.170255838393232 -0.0245891247092625 0.07316867 -0.04776927 0.9961749 205 196 184
0.0889189590204928 -0.193445486065321 -0.0310366136656712 0.2517438 -0.1893457 0.9490908 219 207 197
0.0907301877725688 -0.189349413074387 -0.0308113385475227 0.1101973 -0.1648071 0.9801506 220 209 196
0.093364248787033 -0.189356612735561 -0.0309648091397936 0.07919321 -0.1471367 0.9859408 217 207 194
0.0847662007495202 -0.189327237394762 -0.0253008761916778 0.6206124 -0.4409376 0.6483936 221 208 190
0.124087046165392 -0.189291835405295 -0.032845167154542 0.345938 -0.2340845 0.9085876 224 212 192
0.0888002379442669 -0.183402050415475 -0.0300901855222324 0.3654102 -0.3753106 0.8518318 224 210 195
0.0948576186179695 -0.183203531477554 -0.0303514656098863 0.1515663 -0.2091429 0.9660677 214 203 190
0.0931043380768513 -0.179528072009378 -0.0299456924986716 0.3988869 -0.1529627 0.9041525 223 210 195
0.0992388851897896 -0.1868419967005 -0.0300141796711341 -0.0168878 -0.1347764 0.9907321 218 207 198
0.105393442542787 -0.185464253116946 -0.029851712666044 -0.08625808 -0.09430163 0.9917998 213 203 193
0.095722031573195 -0.183146662787759 -0.030105080618656 0.1464225 -0.1854259 0.971688 216 205 193
0.10508266058886 -0.181598701888757 -0.029330775236975 -0.08411761 -0.0918088 0.9922174 215 205 194
0.117987232369672 -0.202690618241561 -0.0356854503166653 0.2208992 -0.2791058 0.9345071 205 190 153
0.11877261001337 -0.199506212565156 -0.0348972087617133 0.1750553 -0.2820163 0.943304 225 211 194
0.120661278250759 -0.195653260907421 -0.0345680619087404 0.2970386 -0.2666155 0.9168884 223 210 191
0.121849314526006 -0.192102546433767 -0.0321626951970041 0.3614232 -0.2833997 0.8882893 230 217 202
0.119537578731928 -0.194343877144424 -0.0303837210878805 0.2283169 -0.2618665 0.9377086 224 213 197
0.120810244280636 -0.191740667290145 -0.0290810968107533 0.3256569 -0.2635458 0.908015 224 213 198
0.123764957034427 -0.185949146498822 -0.0280695988918876 0.3163126 -0.3037726 0.8987038 222 211 196
0.13055493972998 -0.186154575917884 -0.0364690777205259 0.3333358 -0.3587483 0.871887 213 196 163
0.12720654259448 -0.183643542076536 -0.0333133521271238 0.3295445 -0.3395176 0.8809814 230 214 192
0.113129851341346 -0.187703720942909 -0.0289221359818874 0.0005685068 -0.1697378 0.9854891 210 201 189
0.113181283368218 -0.185449692157374 -0.0286929570983302 -0.003587442 -0.148242 0.9889446 213 204 193
0.117123555948961 -0.183721963210325 -0.028318508877295 0.1044194 -0.1125081 0.988149 208 199 188
-0.112236023575259 0.168619709049953 0.0336198320396417 0.05160873 -0.1926806 0.9799034 185 176 167
0.103380678592616 -0.141258521196338 -0.0262950534020873 0.02193693 -0.06492744 0.9976488 225 214 205
0.113379090317711 -0.170000590197988 -0.0269375018253215 -0.08689448 -0.1058249 0.9905809 220 208 197
0.123062819665392 -0.179754304300591 -0.0273895442293286 0.1080505 -0.2450062 0.9634817 217 207 197
0.131505590966683 -0.175836562881572 -0.0287800871827659 0.2767226 -0.3399724 0.8988011 223 210 189
0.130968259004059 -0.17177968537247 -0.025623942817223 0.1113433 -0.2682822 0.9568842 217 208 195
0.124967392271794 -0.169952077532551 -0.0265380444989459 0.01966302 -0.2442731 0.9695071 219 208 200
0.144467707785538 -0.18469494316122 -0.0362235674525105 0.4026548 -0.3810366 0.8322741 205 193 171
0.134756153611144 -0.17154463542515 -0.0269984002505137 0.1569351 -0.2995128 0.941097 223 209 189
0.135351541801687 -0.170009563939643 -0.0267448191419336 0.1291213 -0.2779529 0.9518771 221 208 189
0.131013601357706 -0.16391358882262 -0.0248726471804276 0.08676054 -0.09686344 0.991509 222 212 201
0.0910513626902336 -0.177547931860283 -0.0294166915501909 0.8072596 -0.2642426 0.5277384 223 207 189
0.0122901702966303 -0.0267117537604853 -0.00102776173998192 -0.1320085 -0.1375472 0.9816591 195 187 180
0.0851356434888748 0.0582912034358192 0.00949743091384798 0.7866597 -0.2905051 0.5447691 219 208 195
0.137243643294504 -0.157715898794538 -0.0287220815572209 0.1174781 -0.07419621 0.9902999 240 225 204
0.113301847456424 0.0904133500049886 0.00314378322358427 -0.04405875 -0.1176656 0.9920754 222 212 204
0.0160642606833603 0.119695436428596 0.0185743306043558 -0.04006927 -0.2339748 0.9714166 196 187 178
0.095122988497641 -0.171145521932948 -0.0289516656400093 0.2180353 -0.04263205 0.9750093 224 211 198
0.0700924379615486 -0.0416056437207338 -0.00516751439566379 0.09420622 -0.02432925 0.9952554 200 192 183
-0.0542773616901489 0.128131840758582 0.0241419375332204 0.008586361 -0.1516479 0.9883973 193 185 176
0.0445398561011219 0.0287489350732917 -0.000194244685928796 -0.04395029 -0.1646779 0.9853677 206 194 179
0.0297672745418422 0.150793352260534 0.0219082250950054 0.323036 -0.07922431 0.9430648 210 200 193
0.0125327869784124 0.205328822685706 0.0270055382354776 0.01326851 0.2240487 0.9744876 229 189 208
0.0985385251268642 -0.0295600246516445 -0.015129214741254 0.02479848 -0.121393 0.9922947 218 207 199
-0.0415640946620917 0.191440785556264 0.033952261743387 0.0290054 0.05254071 0.9981974 199 189 181
-0.102425663517716 0.152261931186388 0.0300583159694655 0.036332 -0.1673748 0.9852237 184 174 163
-0.0288982891922513 0.134144046617583 0.0259689038129897 -0.03772188 -0.1399775 0.9894359 183 175 167
0.0809722074617518 0.204672417095459 0.0223441555438675 0.4227173 0.04797696 0.9049907 236 206 206
-0.0710781355823098 0.00796633022264048 0.00502513801452283 -0.054619 -0.1725793 0.9834801 192 183 170
-0.052349427278493 -0.0311023637496936 -0.000191940527891094 -0.1615121 -0.1844542 0.9694795 184 176 169
0.107497113613836 -0.00491019864628395 -0.0111407223397151 -0.0643279 -0.1751125 0.9824446 209 200 192
-0.00170162543522423 0.00346843392079554 0.0015144178352148 0.1188852 -0.192879 0.9739938 201 190 182
0.129973841683616 -0.0116753651090798 -0.0105498609214289 -0.004063128 -0.1106836 0.9938474 216 207 200
0.0155696079771621 0.192422711653099 0.0258597078407559 0.01771341 -0.1105666 0.9937109 204 195 186
0.08853503659574 -0.105589947797677 -0.0125199564860418 0.8752238 -0.1452929 0.4613819 220 202 168
-0.0232330282208943 -0.0645204531923708 -0.00153783600321789 -0.004357086 -0.3172918 0.9483179 195 187 181
-0.0122423542426047 0.17774439508813 0.0310260989668367 0.4212747 -0.03505436 0.9062554 222 208 189
-0.0316282689817804 -0.232256314128153 -0.032488822224994 0.1017915 -0.2008362 0.974322 188 176 157
-0.0236203037970659 -0.2302267726046 -0.0314986454353693 -0.02868661 -0.1697506 0.9850695 182 171 152
-0.0335795743449347 -0.22612283857954 -0.0319810890291253 0.1142789 -0.1941127 0.9743 200 186 169
-0.0334558736189541 -0.222258563854598 -0.0279797369039929 0.1137376 -0.2450618 0.9628128 206 194 171
-0.0290023023608192 -0.219969309280034 -0.0313845506956525 0.1115282 -0.1868022 0.9760463 197 185 168
-0.0108601288225447 -0.226389307444376 -0.0303907494945803 -0.04702603 -0.08975199 0.9948533 195 185 161
-0.0197021888299664 -0.222677651667443 -0.0304257685688735 0.02210939 -0.1268187 0.9916795 186 174 153
-0.0191924922583135 -0.218415569799253 -0.029962902222719 0.07896481 -0.1293859 0.9884452 186 174 157
-0.0312289458868058 -0.217887954833917 -0.0252569912915944 0.1280467 -0.2047267 0.9704077 207 195 180
0.0107650242143436 -0.221090750532724 -0.0268779782529101 -0.06930443 -0.177783 0.9816263 187 180 163
-0.00537178449210618 -0.222440998828859 -0.0298352885486741 -0.07570718 -0.09822206 0.9922806 188 179 165
-0.000799812532425115 -0.218309099755145 -0.028906626893799 -0.1203599 -0.09055375 0.9885917 193 185 176
-0.0104392851175614 -0.216011160564427 -0.0292936686244906 -0.05911202 -0.09067807 0.9941244 200 189 177
-0.0107930435247994 -0.212328297134419 -0.0290787574955589 -0.05560378 -0.0882587 0.9945444 199 189 176
0.130698552055319 0.0668374967513454 0.00112215832421417 0.0192705 -0.1413235 0.9897759 215 205 199
0.00235327001048979 -0.220393115476722 -0.0286252312878442 -0.1516864 -0.08962104 0.9843573 186 178 168
0.0072093128125843 -0.215855482125023 -0.0272028255110292 -0.1559567 -0.1149087 0.9810573 193 181 173
0.00069477603136292 -0.213342776840145 -0.0283061887259171 -0.126543 -0.09700535 0.9872066 184 177 163
0.00713826537704243 -0.208506228262112 -0.0265595156157697 -0.1654602 -0.1055324 0.9805539 193 183 172
0.0182504874819678 -0.217737314492107 -0.0250238162978833 0.2609476 -0.2556995 0.9308728 189 180 168
-0.0981657172222627 0.177941813679383 0.0346907405888925 0.05590722 -0.1887017 0.9804417 186 175 164
0.0151068518109421 -0.209706795650429 -0.0247664499718851 0.03844499 -0.1225957 0.9917118 189 180 169
0.0629484699517917 0.0849946459640392 0.00961850532849053 -0.114109 -0.08816296 0.9895486 195 187 173
0.0269310926226849 -0.211028419857157 -0.0255490635142256 0.5022106 -0.3382145 0.7958615 214 199 178
0.0280305053294656 -0.208833692497164 -0.0238336440667643 0.5521694 -0.4068951 0.7276986 215 200 179
0.0339353041693586 -0.202344673992779 -0.0310439795834005 0.4673118 -0.3181706 0.8248558 208 194 167
0.0307238039755529 -0.203030092235161 -0.0276391043446439 0.527279 -0.4238994 0.7364008 215 199 175
0.0300920397467088 -0.204957861022792 -0.0233626892707835 0.4515977 -0.3530099 0.8194166 212 197 176
0.0291931106331429 -0.202930123017802 -0.0210144903166046 0.452178 -0.3468086 0.8217414 204 193 179
0.0314380021635525 0.0430554915881285 0.0100312680125536 0.3814148 -0.005909015 0.9243851 192 183 175
0.0370351010639958 -0.20283566123626 -0.030529091203995 0.4284171 -0.2758657 0.86044 216 203 188
0.0336498305422239 -0.197349903843279 -0.0238120656619783 0.5288913 -0.3092347 0.7903467 213 199 179
0.0372690101495827 -0.191038298549619 -0.0235344719274113 0.4461617 -0.349546 0.8238673 216 203 186
0.0510385907397488 -0.192847070612782 -0.0286499657985585 -0.02326888 -0.1258025 0.9917824 214 203 192
0.033995694180752 -0.0389329245514466 -0.0113037573140475 0.3586749 0.01251996 0.9333786 208 190 164
-0.0120837404062488 -0.0123117485846963 0.00828291642899985 0.5446749 -0.3263759 0.7725335 216 204 187
-0.0302234193742335 -0.213831960186749 -0.0304708614666155 0.1632831 -0.1795625 0.970101 199 184 151
-0.0414960402193678 -0.210013875272664 -0.0258590603663761 -0.07090098 -0.1365189 0.988097 169 159 146
-0.0374226161410069 -0.207508079584974 -0.0251597081464886 0.006680264 -0.1515985 0.9884196 180 174 163
-0.0248353781740978 -0.208494719306541 -0.0295318775966231 0.2016262 -0.2596849 0.9444102 192 178 152
-0.0275181329568399 -0.20504261693908 -0.0294027865995308 0.2171594 -0.1998495 0.9554591 202 186 154
-0.0268374682492807 -0.209995247841567 -0.023176016453253 0.2202465 -0.2482422 0.9433278 202 193 174
-0.0233201552190883 -0.204138079885434 -0.0220965110661619 0.3388434 -0.3187645 0.8851973 210 199 182
-0.0249918087305634 -0.200959095834801 -0.0283934738932791 0.4075009 -0.2906761 0.8657081 196 180 145
-0.0228201437817397 -0.197033878943696 -0.028049823600596 0.3172146 -0.2635727 0.9109908 194 179 137
-0.0133963774518984 -0.208763664943422 -0.0291623762919185 0.01157898 -0.1028928 0.994625 193 183 162
-0.0146211575798345 -0.204321085402036 -0.0285994337820929 0.1448152 -0.1769097 0.973515 200 189 179
-0.019269607237888 -0.203977428472999 -0.0287591368807219 0.2139334 -0.2701455 0.9387513 202 190 171
-0.019745065647057 -0.196594980381714 -0.0235947680019704 0.3516271 -0.3589922 0.864571 205 191 169
-0.0030420046104993 -0.204102241274221 -0.0278418215769161 -0.09696094 -0.08279365 0.9918386 195 186 177
0.0234857853857475 0.137698106087876 0.0211448150702923 0.2807583 -0.05704564 0.9580817 210 200 194
-0.00532718161691026 -0.199206161207258 -0.0275977427390691 -0.01891356 -0.0866216 0.9960617 197 188 179
-0.00903332556316894 -0.194718469202887 -0.0276290830863933 0.2546934 -0.2917098 0.9219744 202 192 176
-0.00118294906800198 -0.190365097774873 -0.0265017331748603 0.09541557 -0.1680473 0.9811503 201 190 180
-0.014005292487707 -0.19343420198604 -0.0276741066195049 0.3157596 -0.3607431 0.8775877 204 193 176
-0.00874571261377 -0.190416142057629 -0.0273257958875825 0.2080385 -0.3312806 0.9203115 201 191 179
-0.00741411324811914 -0.186542602313369 -0.0267863642013659 0.1381817 -0.303005 0.9429177 205 195 185
-0.0436937297950202 -0.204152337865932 -0.0255368663491289 -0.1177639 -0.1219161 0.9855294 176 166 156
-0.0274305877476637 -0.200004231082243 -0.0218302372355203 0.2153932 -0.2600489 0.9412653 191 184 179
-0.0414843536546305 -0.200186267063187 -0.0245963092691737 -0.05334271 -0.1698665 0.9840223 177 167 149
-0.0446495989466698 -0.195917911878526 -0.0245815637434141 -0.1415972 -0.119594 0.9826736 177 169 158
-0.0505053920442959 -0.190026896297876 -0.0249579965767891 -0.1152851 -0.1109686 0.9871147 189 179 171
-0.0362189580701964 -0.192145083378315 -0.0228332907726512 -0.0530266 -0.2020914 0.9779301 175 166 155
-0.0313616088820003 -0.190837440617398 -0.0213518528738083 -0.006120205 -0.213073 0.9770171 176 168 155
-0.0315513833464651 -0.185209806467761 -0.0208030479417151 -0.03815504 -0.1870812 0.9816032 178 170 161
-0.0389427618423337 -0.181459077270145 -0.0218461129716531 -0.1807691 -0.12667 0.9753344 173 164 149
-0.0200794209535973 -0.197925514363107 -0.021971684791546 0.3202814 -0.3660708 0.8737345 209 197 178
-0.0197716418569049 -0.196163581116431 -0.0205450071223758 0.3058122 -0.3909339 0.86813 203 192 173
-0.150208621991976 0.126560781415725 0.0296609484667928 0.06868224 -0.1859283 0.9801599 192 182 170
-0.01477160830445 -0.18852623355433 -0.0199875867986607 0.3871736 -0.4201227 0.8207274 206 195 174
-0.0134098180998423 -0.185962151296786 -0.0180872458202347 0.4384476 -0.3496135 0.8279699 204 192 171
-0.0164985730877039 -0.186468181065423 -0.0268457070398258 0.3406108 -0.3502997 0.8725104 206 190 166
-0.0142159087975386 -0.186761939468998 -0.0204467869706366 0.358706 -0.3430566 0.8681257 210 198 180
-0.122523406250723 0.162231825652111 0.0327673021062294 0.07466013 -0.1796808 0.9808877 186 179 164
-0.00682235134625309 -0.184561186914302 -0.0265340585972284 0.1627777 -0.3244056 0.931807 204 193 182
