ply
format ascii 1.0
comment File exported by Rhinoceros Version 7.0
element vertex 477
property float x
property float y
property float z
property float nx
property float ny
property float nz
property uchar red
property uchar green
property uchar blue
end_header
0.127459820096319 0.0551308421989462 -0.00332714401710628 -0.04647056 -0.1387518 0.9892363 197 189 177
0.136058502301485 0.0537499962940483 -0.00262074070018545 -0.05736521 -0.1341909 0.9892937 196 187 174
0.145280972351894 0.056600013894967 -0.00217030465894388 0.00814354 -0.0966583 0.9952843 197 189 178
0.139615485108485 0.061253637347587 -0.00136084225826522 -0.05829275 -0.1400689 0.9884244 199 191 181
0.121496137575271 0.0615467523073069 -0.00250498496223975 -0.03961594 -0.1398856 0.9893748 200 191 180
0.131447976318895 0.06374177052216 -0.00173064154990672 -0.04858499 -0.1438001 0.9884134 200 190 179
0.149245363461952 0.0590570789039698 -0.00112901065405112 -0.005270391 -0.1304702 0.9914382 197 190 181
0.146246198495287 0.0655889991595319 -0.00074598045106658 0.003639829 -0.1826768 0.9831663 208 201 190
0.158572734713309 0.0612467400820033 -0.00243695915792171 0.02649174 -0.1473821 0.9887248 216 205 188
0.157782253070424 0.0670624505164689 -4.14169462416153E-05 0.004477863 -0.144141 0.989547 218 205 189
0.156353442840839 0.0724392376388586 0.00166102932537024 0.0001620045 -0.1607427 0.9869964 207 198 188
0.112166973565329 0.0673288078855337 -0.00181661506798576 0.2172191 -0.06570815 0.9739088 202 192 181
0.119990881779335 0.0728920630488922 -0.000665772142361853 -0.042094 -0.1430198 0.9888242 206 197 184
0.135169005580169 0.0679084318587643 -0.000674900101804807 -0.04805091 -0.1441575 0.9883875 192 183 172
0.131577951761306 0.0729737835126397 -0.000362919907183734 -0.04819505 -0.1391159 0.9891026 203 195 181
0.151701516751681 0.0733154638116665 0.000983928630339567 0.002761321 -0.1718118 0.9851259 207 197 189
0.139363800537736 0.0749821535145391 0.000505891081621621 -0.05022106 -0.1338297 0.989731 199 190 178
0.14510847508504 0.0760540365605912 0.000489858170062155 -0.0500201 -0.1347561 0.9896154 201 193 183
0.137660943160574 0.0799629178392055 0.00114333225329268 -0.05227729 -0.1310609 0.989995 200 192 182
0.139575330482192 0.0835577325964637 0.00171868893356678 -0.05145238 -0.1299628 0.990183 204 196 185
0.153365020353092 0.0791152514156065 0.00176628471370639 0.01664783 -0.1311797 0.9912188 200 191 182
0.153871053316083 0.0830127705416167 0.00228932288065679 0.004708357 -0.1293813 0.9915838 197 189 180
0.147521094048575 0.0889650562440468 0.00252285660555716 -0.01666195 -0.1153876 0.9931808 196 189 179
0.151625899331854 0.0926042840762907 0.00330999928481605 -0.01172469 -0.1085774 0.9940189 200 191 181
0.114989773484668 0.0794888340559706 -0.000178478922539319 0.1322446 -0.1480917 0.9800919 211 200 188
0.127258122592381 0.0791626545962502 0.000121917718795911 -0.04479141 -0.1336222 0.9900196 201 193 182
0.111617244746299 0.0796858705683267 -0.000116569396241814 0.1219505 -0.1820126 0.9757046 207 197 186
0.115590857953292 0.0837875997814116 0.000537462306130387 0.1114266 -0.09912755 0.9888164 205 196 184
0.119628523822174 0.0862254131050214 0.00119990877218742 -0.02668683 -0.1315769 0.9909467 209 199 187
0.12579464206354 0.0913435600023879 0.00185514535349265 -0.04504074 -0.1197453 0.9917824 200 193 184
0.103758815202108 0.085674940667637 0.000593927315985343 0.4343069 -0.1065933 0.8944358 211 198 183
0.104357926639065 0.0873975259915608 0.00112657032573479 0.4240895 -0.1231997 0.8972012 209 197 182
0.109707922593799 0.0918648503431673 0.00159567989769474 0.3306688 -0.04954708 0.9424453 209 199 189
0.102341338816312 0.0877615735204994 0.0101722136624362 0.6271566 -0.132665 0.767512 216 203 182
0.109839061982307 0.0961309297110028 0.00206803549099045 0.2250472 -0.05636993 0.9727159 209 198 188
0.113830470508151 0.0978627743508899 0.00235734838401855 0.1105611 -0.07360756 0.9911398 209 200 190
0.1201509706878 0.101486265710836 0.00280524245332303 -0.03116535 -0.112665 0.9931442 206 196 188
0.129922284912451 0.0895142152959535 0.00171671805387462 -0.04423106 -0.125309 0.9911313 202 193 184
0.129934824342508 0.091160545967757 0.00189223552967971 -0.04228887 -0.1262301 0.9910992 199 191 182
0.138303789638868 0.0976912824271764 0.00338964769717388 -0.04312226 -0.1148334 0.9924484 201 192 181
0.135962105133906 0.0993079483974902 0.00345845773620958 -0.04685512 -0.1146006 0.9923061 198 189 180
0.144271605871154 0.0953705586183701 0.00321065261528247 -0.009952674 -0.1201841 0.9927017 198 189 178
0.145667110969416 0.0991671226930485 0.00359548771406293 -0.01442295 -0.1236566 0.9922202 202 194 184
0.138168462165828 0.101383587434941 0.0038684081659066 -0.04623966 -0.1129251 0.992527 202 194 180
0.147810182734148 0.108847843670979 0.00486763168164693 -0.03588654 -0.1031762 0.9940155 200 191 183
0.134350100697905 0.103534756880352 0.00373031054132258 -0.05082521 -0.1067275 0.9929885 198 190 182
0.157927283198518 0.0925875314393368 -0.00101773934780076 -0.009881514 -0.1142156 0.9934068 206 195 167
0.156360936964797 0.100733987698861 0.00480305050460804 -0.001832679 -0.1090484 0.9940348 211 200 191
0.149686015712241 0.107166317204007 0.00489100275380712 0.0005301119 -0.1254012 0.992106 201 193 183
0.156998000578749 0.113026742140607 0.0059413960572923 0.008020065 -0.1291858 0.991588 217 205 191
0.102152370433213 0.0999972038594227 0.00237671587105416 0.6223318 -0.0528982 0.7809641 212 198 182
0.109951135918759 0.103612134474207 0.00291200937716313 0.1301255 -0.01468033 0.9913889 209 198 187
0.115761814885351 0.107864630641884 0.00337668801840568 0.04830162 -0.1079486 0.9929824 195 187 175
0.127870515058726 0.113557737111461 0.00423940415801785 -0.04446727 -0.1057261 0.9934006 204 196 185
0.136625703887667 0.110955569688778 0.0049978434028134 -0.04717324 -0.1038647 0.9934721 188 179 172
0.142198911714397 0.114751186885549 0.00501974179163937 -0.03468018 -0.1060276 0.9937583 198 189 178
-0.164710066475315 0.193538579080505 0.0418391889768421 -0.01325961 -0.2426594 0.9700209 181 171 152
-0.196102382931183 0.143714649665071 0.0286451472699681 -0.1841276 -0.2230334 0.9572634 204 186 111
0.157133138388625 0.116547858045425 0.0047456364519998 -0.004808899 -0.08997975 0.995932 220 207 192
0.156639339331625 0.117194942117053 0.00631119483380427 0.0005630907 -0.09458469 0.9955167 216 205 192
0.146195070623047 0.121305187637997 0.00606005968758336 -0.02271843 -0.112115 0.9934355 198 190 182
0.148436350318911 0.124839106332164 0.00697997995773114 -0.007021504 -0.09904233 0.9950585 199 190 180
0.157456554429374 0.121143835732682 0.00598038950795696 0.01628842 -0.07364273 0.9971517 220 207 192
0.156897208603339 0.127228831191669 0.00419105126322251 0.03246094 -0.08657801 0.9957161 217 203 182
0.154174382530695 0.132670250415763 0.00835172698523694 0.03118336 -0.08041687 0.9962734 205 196 188
0.128132231011117 0.222745574683397 0.0165605991404327 -0.05224667 -0.1082335 0.9927517 211 192 188
0.0449087096069921 0.199730970154074 0.0251639564000177 0.2721642 -0.0746373 0.9593518 184 174 157
0.142911521249749 0.186673030518807 0.0129284010927858 0.06531138 -0.1153814 0.9911718 197 186 174
-0.0961047580563471 0.118984847999866 0.0288286858764224 -0.0220494 -0.1860764 0.9822878 171 162 145
0.00251906537743174 0.175597869456563 0.0307263486183731 0.827557 0.01636181 0.5611433 202 190 160
0.102947839351085 0.0918528753601272 0.0103705740177445 0.5820789 -0.1563668 0.7979559 217 203 183
0.10239082667736 0.100133143398352 0.0119568301918973 0.6219311 0.03846037 0.782127 215 201 181
0.102125951011195 0.103890881687907 0.00269196384490104 0.5614907 -0.06680036 0.8247823 211 198 180
0.0996029837617937 0.105662845974965 0.00290457664249363 0.5993779 -0.0777516 0.7966812 211 196 173
0.102335673719958 0.105916869195996 0.0101310152914273 0.5990284 -0.02052249 0.8004647 216 202 180
0.104186739150777 0.111545668869945 0.00348923109151469 0.56446 -0.1765694 0.8063549 214 202 188
0.108417640090367 0.109924655990099 0.00367091057627827 0.2434036 -0.1203538 0.962429 211 200 189
0.112344899547663 0.11580172809726 0.00416926246524564 0.04570306 -0.1134489 0.9924921 209 199 188
0.10241728789114 0.119880195556955 0.00428192037304011 0.4254395 -0.1067516 0.8986686 210 197 178
0.106079697173713 0.122090486754347 0.00464324328618006 0.2604977 -0.1125882 0.9588873 209 198 185
0.0986393714703694 0.106030734305564 0.0128951552074735 0.6242855 -0.1216303 0.7716694 184 175 160
0.0920132674865622 0.11410595262106 0.0127634972407256 0.1034801 -0.1077607 0.9887767 187 178 162
0.092370594282955 0.118290380884059 0.0131883440305206 0.1883114 -0.01208338 0.982035 185 176 158
0.102158243997748 0.119640974528396 0.0121689181891707 0.5351409 0.009452223 0.8447099 213 199 177
0.104225817024649 0.123683954392527 0.0044976326665206 0.2055668 0.01524962 0.9785243 211 200 187
0.101703461375974 0.125469781399799 0.0051386478088901 0.5429927 -0.05385764 0.8380085 212 199 182
0.102215876901956 0.125520932242618 0.00985097823677181 0.5207574 0.008854866 0.8536587 209 196 169
0.102693859470108 0.13152127812789 0.0053843792567294 0.4343638 0.0047333 0.9007251 208 196 180
0.120149317098311 0.116363735841158 0.00456898310979269 -0.03160218 -0.1024835 0.9942326 204 196 186
0.124593878082908 0.119521865967615 0.005174960322275 -0.04392815 -0.1061025 0.9933844 194 186 176
0.132630533401556 0.121498114792887 0.00558180474085983 -0.04660275 -0.1095936 0.9928834 200 192 184
0.113550535062088 0.124463167980569 0.00490141540736293 0.08398674 -0.06366748 0.9944308 204 193 182
0.120556573618163 0.131257248675808 0.0059389148628449 -0.03854113 -0.1008473 0.9941551 205 197 186
0.133937515840995 0.129452644863983 0.00648997856334455 -0.05267059 -0.1094896 0.9925915 202 193 184
0.134320320093685 0.133362523612452 0.00696356238177175 -0.05695046 -0.1046121 0.9928811 201 193 182
0.110472178883791 0.128237394256385 0.00544978512542232 0.1266318 0.04996014 0.9906908 208 197 188
0.120414692754824 0.135044647890398 0.00645775829730036 -0.04338265 -0.1008818 0.9939521 206 198 188
0.126413945173155 0.14124791711168 0.00711586763525632 -0.05632872 -0.09904968 0.9934869 203 195 185
0.104340467602459 0.138184328850344 0.00621787422671857 0.5490974 -0.1062834 0.8289728 211 201 187
0.124939690654022 0.141263838115881 0.00693600109645529 -0.05420847 -0.09869947 0.9936397 205 196 186
0.125029291538638 0.147233395061119 0.00775360455684773 -0.0580829 -0.1040011 0.9928797 202 194 184
0.0843182905517351 0.121783861804816 0.0127115180429008 -0.09842529 -0.1025083 0.9898508 191 182 165
0.0902893530833094 0.126208811210311 0.0135684113061886 0.09257802 -0.08869435 0.9917473 185 174 155
0.0846110179244998 0.130134738494992 0.0134274957059479 -0.001185405 -0.1066277 0.9942983 183 175 154
0.0864873269412109 0.136244939460174 0.0144704693154303 0.03603322 -0.1754253 0.9838331 186 176 159
0.0985170447137785 0.132855070474002 0.0151597232419572 0.4192302 -0.06457575 0.9055805 185 174 155
0.101526660005259 0.134199784381786 0.0151711802727686 0.4898219 -0.02538278 0.871453 211 197 170
0.0882748282378313 0.139321195184396 0.0150467930797395 -0.07177272 -0.1359297 0.9881153 186 177 159
0.10163133143817 0.141742879959335 0.0159827236200404 0.5552312 -0.1777467 0.8124804 205 189 160
0.098003077014284 0.147951040118326 0.00675004059833609 0.4521274 -0.266749 0.8511321 213 199 177
0.0865737285778126 0.140314732836326 0.0151530448560276 -0.0368936 -0.1545625 0.9872939 187 178 162
0.0755436267226272 0.143672646191704 0.0214720471757757 -0.07941056 -0.1342731 0.9877574 153 136 129
0.0768766384621306 0.150268344851901 0.0155639091548731 -0.07241045 -0.1055529 0.9917738 179 169 148
0.0949102490918746 0.146146976779741 0.0166457132110898 0.2979301 -0.049753 0.9532903 183 173 155
0.0947556474087542 0.149750222970298 0.0171165677755476 0.3660426 -0.1355317 0.9206758 186 178 167
0.0908811971314795 0.151584917241765 0.0174564638557641 0.09502946 -0.08466871 0.9918672 188 181 172
0.106327841283693 0.145566960558248 0.00699559765701638 0.5516912 -0.1880661 0.8125688 209 199 188
0.106941200164835 0.149085263911807 0.00760441325654006 0.4677106 -0.127296 0.8746671 210 200 189
0.101385705186207 0.144555860159213 0.015852688019076 0.4998733 -0.06233226 0.8638527 194 179 132
0.109059535680742 0.155701328887707 0.00806332177592776 0.1876071 -0.1102061 0.9760421 204 194 183
0.0988881372334144 0.156515913401259 0.00768726559735303 0.5610851 -0.09298256 0.8225191 210 196 173
0.114953535554585 0.157948428287041 0.0085995365670731 0.0777496 -0.1073141 0.9911805 203 195 183
0.113139822649399 0.159693773881508 0.00863961322995661 0.1299622 -0.07325805 0.9888089 204 195 186
0.117079281492169 0.163565825351061 0.00939360944219537 0.007390344 -0.1057557 0.9943647 203 195 186
0.101222633779568 0.155979532234654 0.0145145956566667 0.5182028 -0.04788378 0.8539163 181 151 93
0.0969727133070605 0.16020180000051 0.0185126386888311 0.400767 -0.09180979 0.9115683 182 173 157
0.105431562768841 0.16597164430828 0.00923523371559293 0.388541 -0.1340638 0.9116265 208 197 186
0.0967537133609583 0.163761169412466 0.0185440760745847 0.4795232 -0.1267054 0.8683336 178 168 146
0.109041447688229 0.164113514258254 0.00931158494974758 0.1407095 -0.131497 0.9812794 206 196 188
0.106895958928691 0.169734867928325 0.00957345043190196 0.389335 -0.05815684 0.9192584 204 193 180
0.114815146889817 0.173952110572075 0.0104631968314347 0.01751289 -0.110066 0.99377 203 193 180
0.143018502546313 0.130991262855258 0.00687372862300542 -0.003613428 -0.1121976 0.9936793 203 195 184
0.145737726064841 0.128798082443996 0.00693007583998707 -0.003914704 -0.110379 0.9938819 199 192 183
0.132797621997111 0.139230711328569 0.00742483861237807 -0.06113876 -0.1049807 0.9925931 200 191 183
0.150355746398034 0.13875969319393 0.00871609463546279 0.0308321 -0.08015466 0.9963055 200 191 181
0.156390658189317 0.14298045718347 0.00796828963415203 0.08661718 -0.06823289 0.9939023 218 206 189
0.146888178264652 0.145135872184677 0.0091159753513132 0.02724962 -0.108596 0.9937124 198 190 181
0.136588030032546 0.143254281950314 0.00838538670906898 -0.0654615 -0.1051743 0.9922969 199 191 180
0.13829491742757 0.149008865486712 0.00879731936742281 -0.06985187 -0.1003064 0.9925016 207 197 186
0.13637611455831 0.152741358305407 0.00900410277068375 -0.06401703 -0.1039386 0.9925213 195 186 171
0.143943277939008 0.155167415076233 0.00968114268464663 0.03425464 -0.1057696 0.9938005 200 191 183
0.148836811505895 0.159090972390706 0.010640928898504 0.04298957 -0.125708 0.9911354 203 194 185
0.148999608532057 0.161044873487544 0.0108049331989738 0.04091541 -0.1328076 0.990297 203 194 185
-0.132232252664053 0.189304838019995 0.0411972832346364 -0.03402028 -0.1897849 0.9812361 172 160 139
0.155782885251185 0.157199760601655 0.00992887444307251 0.08308579 -0.1261677 0.9885234 215 203 187
0.151018519855403 0.163557100107566 0.0111390800806356 0.03320209 -0.1280893 0.9912067 201 192 181
0.152792091848582 0.169471280303357 0.0116984142880345 0.1120018 -0.09284949 0.9893607 203 194 183
0.124978829001708 0.159650164011528 0.00920810132042603 -0.04910428 -0.1067296 0.9930748 201 194 184
0.122625069977928 0.161420636695977 0.00918049463828863 -0.04442624 -0.1081261 0.993144 202 193 182
0.122776767877123 0.169772810152035 0.0101055883264112 -0.04183194 -0.1103545 0.9930116 198 189 177
0.124667027324352 0.173311676120293 0.0105310833678088 -0.04401547 -0.1123294 0.9926957 199 190 179
0.13703720329919 0.171737745179683 0.0111859536056053 -0.05757003 -0.1012559 0.9931933 202 193 179
0.142903630830327 0.171110301734663 0.0112281613914775 -0.0573765 -0.1012874 0.9932013 201 192 182
0.129226327688693 0.175604337570369 0.0111563205265321 -0.04627778 -0.1117966 0.992653 196 187 174
-0.139047304038271 0.154666566836217 0.033702076645499 -0.0254478 -0.1796669 0.9833983 185 176 155
0.125065853486912 0.175572430864902 0.0108488743778625 -0.04231508 -0.1122852 0.9927746 200 191 179
0.15086259800155 0.170985189271762 0.0119341187033631 0.08546752 -0.1062727 0.9906571 204 195 185
0.142851068483694 0.176763935789856 0.0118744506569051 0.002483074 -0.07388561 0.9972636 200 191 178
0.145286076718021 0.183355881069882 0.0128459584031018 0.07203072 -0.0939501 0.9929677 196 186 175
0.1454349354308 0.184789842923964 0.0130779238240329 0.09993442 -0.09887581 0.990069 198 189 178
0.154349769313106 0.187205636101884 0.0118921800460765 0.1352015 -0.1151444 0.9841048 217 204 185
0.0868114934551086 0.158262270478204 0.0174556439442318 0.0640418 -0.09964411 0.9929601 182 173 162
0.0731489112996585 0.160253628171522 0.0161469062966289 -0.09295194 -0.07359002 0.9929473 174 165 142
0.0642009261337763 0.163080428300758 0.0156335256264913 -0.01530824 -0.09524386 0.9953362 180 169 149
0.0848127228567302 0.159796365637843 0.0174520067315868 0.03912177 -0.1001433 0.9942036 181 171 153
0.0837160491696504 0.163728228693285 0.0175197599865465 -0.04193984 -0.08813833 0.995225 177 168 149
0.0753099010015069 0.167760036579026 0.0171566832054936 -0.09118976 -0.09494749 0.9912968 174 164 141
0.0670014889223961 0.169783812732691 0.0165359358879134 -0.05829627 -0.09619974 0.9936534 179 169 149
0.0947995464227213 0.169650507081188 0.0189068360077534 0.448926 -0.2152745 0.8672498 180 171 153
0.0950363672094586 0.171744195674586 0.0189594490131683 0.4571156 -0.2390669 0.8566751 178 168 149
0.0952938274962304 0.174043876084081 0.0193313269588661 0.4562581 -0.1226385 0.881356 183 175 157
0.100168148219351 0.176155853561894 0.0193643683257265 0.6424193 -0.1482418 0.7518789 172 141 86
0.0975102727418004 0.173371889646773 0.0095943313101141 0.6515411 -0.09095488 0.753141 205 190 156
0.107005534295017 0.181941779911641 0.0109186197401175 0.3091046 -0.1145366 0.9441058 204 193 180
-0.188556956569078 0.205402983999395 0.044539830542423 -0.07190343 -0.2285836 0.9708653 237 162 213
-0.138403821566032 0.209112091644348 0.0460369163270836 0.1316619 -0.01413681 0.9911939 187 184 176
0.113020071404986 0.183560489972078 0.0115204662822232 0.08090547 -0.1334624 0.987746 203 194 183
0.116961213294085 0.185457912052541 0.0117855689304001 -0.0364654 -0.1191304 0.9922088 200 190 176
0.128864294791257 0.185800789695286 0.0122535741121401 -0.04473813 -0.1203286 0.9917256 196 187 174
0.126792849494153 0.185677697901735 0.0121995949872298 -0.04345555 -0.1219663 0.9915825 199 190 178
0.12536932620115 0.191540927751709 0.0127141515860507 -0.04279584 -0.1279292 0.9908596 199 190 178
0.154328875915217 0.187145184617415 0.0101540085531954 0.1352015 -0.1151444 0.9841048 213 200 178
0.141315248281646 0.185152622688106 0.0127610334099436 0.03847816 -0.1213946 0.9918582 204 195 183
0.138882703081537 0.191264679733976 0.0133972620058658 -0.04619296 -0.1272127 0.9907992 198 188 172
0.135977243440854 0.191705744187857 0.0134240385647971 -0.04849967 -0.1308734 0.9902121 197 187 173
0.142774549649852 0.1975428408975 0.0143604497223978 0.06656531 -0.1058893 0.9921474 195 185 170
0.151111188621987 0.195689977458061 0.014514209262363 0.121832 -0.1353437 0.9832798 201 192 179
0.14735663703485 0.198938662164477 0.0148531002891924 0.07797184 -0.1410629 0.9869254 207 197 183
0.153024364960592 0.206887536320075 0.0138484920184853 0.1586059 -0.108592 0.9813521 216 205 189
0.0864971749188984 0.205809179295573 0.0211073731929696 0.1160692 0.08751705 0.9893779 188 174 163
0.068508073807246 0.174635005640186 0.0172786026695189 -0.04442405 -0.1025112 0.9937394 180 171 155
0.0603405762546342 0.179002950719183 0.0171289951490851 0.08422987 -0.1287064 0.9880992 188 179 159
0.0711626780473374 0.176448192464117 0.0176180350103327 -0.08053077 -0.09894151 0.9918293 178 168 147
0.0707874467086683 0.178905597523808 0.0180091485424365 -0.07710768 -0.09872733 0.9921227 184 175 159
0.0730078722700459 0.186351313872452 0.0186859358474622 -0.05961623 -0.09838321 0.9933613 176 166 145
0.100660617218278 0.174929390338493 0.0130456272298855 0.6416525 -0.0997355 0.7604834 209 194 163
0.0985274044811985 0.209591577548042 0.0197727050074347 0.3819876 -0.02023129 0.923946 214 199 172
0.10299733384441 0.188068873995972 0.0114713900619937 0.4275962 0.08694329 0.899779 209 197 183
0.0995729314340296 0.188226254362673 0.0185485404569696 0.6385403 0.0389653 0.7686013 182 150 93
0.0994524733577585 0.190382452358176 0.0146937108261355 0.5214739 0.02250697 0.8529704 213 197 170
0.0831094180049224 0.184382435958908 0.0190492124441487 -0.02231923 -0.07105111 0.997223 184 175 158
0.091766168846492 0.188197451108266 0.0196792309869297 0.229757 0.01114452 0.9731842 183 173 155
0.0801412769744542 0.188934016141232 0.01975083289412 -0.05492706 -0.08914803 0.9945027 199 189 176
0.097469616313793 0.190043758732254 0.0202174499454084 0.4933237 0.07830766 0.8663138 188 174 142
0.0931535941586165 0.196360041391713 0.0206519940949841 0.3334744 0.03680944 0.9420403 191 181 162
0.101650716729133 0.201585072192121 0.0132905498709955 0.3580825 -0.07217252 0.9308963 216 203 188
0.0989401929038899 0.20221804892855 0.0197782195551747 0.4560756 -0.04424901 0.8888403 220 203 176
0.0981593893427889 0.206586706336295 0.0136942797757984 0.3912919 -0.0561765 0.9185504 207 193 164
0.0629528100205591 0.186624033225915 0.0179824708451757 0.03337804 -0.1164146 0.9926397 183 172 155
0.075340497197394 0.192121934695631 0.0194602569710474 -0.05195079 -0.09270214 0.9943377 181 171 153
0.0509348193918456 0.194371505378557 0.0187781105570586 0.3342754 -0.06618683 0.9401485 197 185 163
0.0578089211202747 0.198213942380167 0.0193443086201539 0.1284945 -0.1301485 0.983133 187 177 160
0.0740642145801197 0.193430016320073 0.0193428978288202 -0.04599925 -0.09869316 0.9940542 172 161 136
0.0711500768913406 0.200571712493649 0.0201660122565202 -0.03040537 -0.04135326 0.9986818 181 171 154
0.0481476672860887 0.190870624795815 0.0237662791422787 0.3634345 -0.1236473 0.9233779 211 197 173
0.0479257368857623 0.196690495645632 0.0205160964656016 0.3453665 -0.07010467 0.9358458 207 192 162
0.0536482154746371 0.198611409235304 0.0194962445566568 0.2557932 -0.1102488 0.9604244 195 183 165
0.0431962124241857 0.201068216471954 0.0252557359778002 0.2284292 -0.08963078 0.9694259 188 176 167
0.061491617573889 0.206806732687633 0.0205817391586466 -0.006387656 0.2312683 0.972869 177 168 147
0.0809304208013887 0.197933332691021 0.0201776541018841 0.01666638 -0.0824099 0.9964591 183 173 154
0.0710404740748273 0.204294092423285 0.0205421196273867 -0.07239942 0.02597538 0.9970374 182 172 156
0.0797475344203543 0.208157336621056 0.021210805436431 -0.01236817 0.1974465 0.9802356 191 165 164
0.0920258243315412 0.201975308515012 0.0211378657030541 0.3496102 -0.02368904 0.9365957 187 177 158
-0.125089945146217 0.154956451819593 0.0344027057071052 -0.03855562 -0.1819297 0.9825554 171 160 138
0.0931289315620151 0.214028388101724 0.0221220792936685 0.2099216 0.2589674 0.9427984 233 155 210
0.051135487450204 0.2083540191975 0.0207597228415487 0.2396772 0.01691924 0.9707052 197 185 166
0.0655833518753289 0.208827503066871 0.0207480860155835 -0.08357316 0.2599998 0.9619852 176 167 146
0.0604338176421412 0.215076944155299 0.0141797531464084 0.06149444 0.2810026 0.9577348 195 180 128
0.0516735700092167 0.214709793041235 0.0216675299924873 0.1576981 0.3680539 0.9163338 193 185 172
0.0637544318626649 0.217173512855172 0.0198720091295371 -0.0117169 0.3967426 0.9178551 196 186 171
0.0598128805408019 0.218888100270457 0.0142293995755989 0.04849118 0.5212941 0.8519983 194 185 171
0.0918516064799232 0.218541348200871 0.0157467263727066 0.163648 0.3521576 0.9215229 194 181 167
0.0821455633466045 0.217785765523692 0.0192673928518898 0.01696773 0.4317173 0.9018493 194 183 172
0.0851011861704051 0.218574734644083 0.0168936711163639 0.07530516 0.4708582 0.878989 191 182 166
0.0700556466776446 0.213218473039906 0.0215465387263045 -0.09118932 0.2995935 0.949699 173 164 143
0.0733831125073577 0.21730507430525 0.0218818678931658 -0.06562372 0.4759507 0.8770202 187 178 161
0.0755207264866734 0.217911170158196 0.0180801335586449 -0.07062887 0.4901777 0.8687562 193 180 167
0.113474243769904 0.187609965915817 0.0118457445175817 0.08474805 -0.12896 0.9880218 199 189 178
0.118899764046831 0.193357458716741 0.0127180637739431 -0.03684069 -0.1283595 0.9910432 200 191 177
0.123456476680337 0.193901489835321 0.0131581025158069 -0.04095973 -0.1315362 0.9904648 201 192 184
0.105051914330326 0.195863241365319 0.0126162328998119 0.2553138 -0.05145112 0.9654883 209 198 185
0.10969031539327 0.201255811848869 0.0136201590424587 0.05493319 -0.097974 0.9936717 198 187 173
0.123404268627901 0.203438519844133 0.0142642082357263 -0.04542548 -0.1386254 0.9893025 195 185 173
0.125381685391256 0.209108466045259 0.0152460038522197 -0.05049394 -0.1134086 0.9922645 196 187 174
0.111308130136558 0.205768279605485 0.0141763025083956 0.04246186 -0.1329994 0.9902061 201 192 180
0.103272661102792 0.211626720076502 0.0144438766190416 0.1411955 -0.07179126 0.9873753 202 190 172
0.113427250137082 0.209939189790249 0.0148592884345498 0.004767078 -0.1306884 0.991412 193 183 168
0.119582273386474 0.213888813680678 0.0157253701015995 -0.03904364 -0.1071197 0.9934792 195 185 173
0.129810827614052 0.204881356049444 0.0149112447363946 -0.04678892 -0.1411785 0.9888779 195 185 169
0.127113490642219 0.209494937605874 0.0152844346442729 -0.05049394 -0.1134086 0.9922645 191 180 165
0.132199366023922 0.21350907504998 0.0162071703908184 -0.05955676 -0.1121124 0.9919091 235 163 211
0.139647384160838 0.211680746612572 0.0164433613332009 -0.01025349 -0.123139 0.9923365 244 171 221
0.147260863002495 0.213666551654767 0.0172151435276007 0.06007801 -0.09520445 0.9936432 245 181 222
0.141261122274149 0.215367599595231 0.0168418273550389 0.01856055 -0.07983918 0.996635 238 166 215
0.143620833964666 0.22110574169429 0.0177016130883221 0.01490432 -0.07018598 0.9974226 241 166 218
0.131828407349538 0.21920321450301 0.0171234415517746 -0.05813714 -0.1085664 0.9923877 232 175 207
0.0994512685384644 0.21261751865792 0.0145772811090765 0.2412681 -0.02380095 0.9701666 216 203 187
0.105688949541616 0.219245516582615 0.0157893992723852 0.09510479 -0.06290629 0.9934776 187 178 163
0.109123460378303 0.221671425599952 0.0161208479564614 0.05660713 0.004207367 0.9983877 202 193 184
0.123079753242299 0.219617681512928 0.0167215093883814 -0.0438172 -0.1061265 0.9933867 192 183 170
0.12995570424924 0.222596709687027 0.017590963240031 -0.05560149 -0.1090349 0.9924816 222 183 198
0.098019214886837 0.214414841468501 0.0217564263573248 0.2076493 0.08222441 0.9747415 222 184 190
0.101635233771229 0.219716982950373 0.0155686010061683 0.1641673 0.148295 0.9752219 196 187 174
0.103108684004045 0.221722972931502 0.0138067404356215 0.1274416 0.136372 0.9824262 193 184 173
0.151880216611651 0.212789457507677 0.0167446645927905 0.08820443 -0.1083293 0.9901943 232 180 205
0.152413743896246 0.219377404411868 0.0144490629131276 0.08342776 -0.1001116 0.9914724 213 201 184
-0.0611065728315713 0.187924452004856 0.0426159619398955 -0.01737436 -0.1454781 0.9892089 160 152 130
-0.088623780442875 0.122332402742572 0.0297737127820556 -0.01574092 -0.1784449 0.983824 174 164 151
-0.0287181685065186 0.175659299225396 0.0337320204622752 0.1637028 -0.1981224 0.9664103 167 157 139
-0.0715407653789432 0.139432056304257 0.0331123375212418 -0.05231689 -0.2007546 0.9782436 178 170 149
0.00575817338193285 0.208958970707044 0.0265417771013039 0.2170529 0.4817995 0.8489742 190 179 161
-0.0565023285386214 0.211488866703684 0.0442701768201124 0.03122853 0.919036 0.3929347 176 165 140
-0.147145437848092 0.166861922427456 0.0359869419092407 -0.006026091 -0.18997 0.9817714 188 179 160
-0.041496972222321 0.204115015715332 0.0405040462465443 0.4290663 0.09201977 0.8985736 180 166 115
-0.0466840776827057 0.193687587464456 0.0432393540802177 0.3311605 -0.07832812 0.9403177 171 159 140
-0.155284389056871 0.149020863436165 0.0328787319386818 0.01767924 -0.1793024 0.9836351 179 171 154
-0.134533371578295 0.175968121170859 0.0381388120450487 -0.03754642 -0.2112197 0.9767172 180 169 148
-0.0131120285148124 0.198950608401274 0.0373969259908914 0.1091778 0.09128832 0.9898215 173 163 143
-0.0316198911665319 0.143561287659609 0.0281598604441671 0.08565935 -0.1748847 0.9808556 171 158 136
-0.0789279088381339 0.192441854586035 0.0427005601782511 0.001181072 -0.1673317 0.9859 164 156 135
-0.196859653634071 0.125451428340467 0.0242879867007319 -0.2011284 -0.2312437 0.951879 202 185 119
-0.0960983500172549 0.100592668625039 0.0250310721775342 -0.03480739 -0.2093048 0.9772308 169 161 144
-0.189266692325844 0.202435482407874 0.0433298889311405 -0.08113877 -0.2317807 0.9693782 212 158 185
-0.153128423521107 0.0813711693543141 0.0194022146488605 0.01173772 -0.208944 0.9778572 180 168 142
-0.041330138937358 0.201209325820976 0.0370283706930611 0.4370192 0.1569282 0.8856567 185 172 138
-0.140720246502515 0.209045691906555 0.0459022882616987 0.12725 0.03094638 0.9913878 179 177 161
-0.0887669478459473 0.201662797078803 0.0445998804434341 -0.02090941 -0.03976661 0.9989902 157 149 128
-0.12784623917229 0.208363785141995 0.0364829893443104 0.01750588 0.1339999 0.9908267 202 188 164
0.00877093511702565 0.19684325566479 0.0249451293862601 0.2838617 -0.04248766 0.9579235 192 183 166
-0.0431608089729228 0.176023952654314 0.0403235136879613 0.3296527 -0.1682927 0.9289815 160 151 119
-0.141277052621965 0.147727014063049 0.0325584770625095 -0.02262579 -0.1752849 0.9842578 183 178 158
-0.0825824786064083 0.153780523768563 0.0352118311731771 -0.04396414 -0.1913155 0.9805435 158 145 127
-0.191760642653341 0.172301237394413 0.0363598551267084 -0.08822995 -0.1446887 0.9855357 180 171 139
-0.0810055475577302 0.17244626168625 0.0390856866555852 -0.0316028 -0.1885921 0.9815469 158 148 131
0.00305644795964521 0.169220901582374 0.0337179880592178 0.8145722 -0.07198899 0.5755778 201 187 155
-0.184970775682213 0.0538332515697172 0.00850562997814032 -0.3126216 -0.2659191 0.9118963 205 191 144
-0.194296006537172 0.0917863985905442 0.0165008905250211 -0.2003349 -0.2568583 0.9454574 208 194 142
-0.0277384204384169 0.209454916136643 0.0232083770298974 -0.06508332 0.966915 0.2466568 175 159 103
-0.185379908238641 0.110218257413883 0.0238964585792755 -0.1566993 -0.2393948 0.9581938 175 164 138
-0.0504390281213062 0.208161631195554 0.0283089112359361 0.1454639 0.9870293 0.06792235 198 181 147
0.00687908936103632 0.190892499645324 0.0242923293575745 0.3811774 -0.1627056 0.9100718 195 185 171
-0.0592126417457931 0.126382500919094 0.0314204135562823 -0.04987232 -0.1789948 0.9825852 169 164 148
-0.183888441345618 0.0503898142029681 0.00799630792531417 -0.3162992 -0.2598653 0.9123732 202 187 138
-0.18661085814827 0.0600732846562068 0.0101950436248333 -0.2769303 -0.2743324 0.9208971 208 194 146
-0.178179568231911 0.0594529170745378 0.0124619043295891 -0.2510105 -0.2725427 0.9288241 187 176 153
-0.178196503797272 0.0642041120916487 0.0136858072228989 -0.2455384 -0.255601 0.9350824 185 176 138
-0.185097614726882 0.0662772494943945 0.0131010552995853 -0.2730743 -0.2592314 0.9264067 189 179 157
-0.187098351375401 0.0673379469895096 0.00699195803298493 -0.2730743 -0.2592314 0.9264067 194 180 129
-0.186528049820757 0.076735616996355 0.0153799846018274 -0.2492068 -0.2630007 0.9320551 186 176 152
-0.182033326703684 0.0818148117127829 0.0171253211517796 -0.2021352 -0.2530443 0.9461025 180 168 144
-0.193333397564121 0.085192495974879 0.0132605178941404 -0.2488597 -0.2726151 0.9293814 194 179 127
-0.194695806488315 0.0956213697003995 0.0184679857375353 -0.1735038 -0.2432267 0.9543255 200 185 126
-0.19646252211156 0.103544415604834 0.0188259278210238 -0.1886376 -0.2482418 0.9501536 209 193 132
-0.16640653554931 0.0634026137894695 0.0149531438637716 -0.07289712 -0.2364274 0.9689108 182 172 151
-0.170667152353127 0.0673254463866656 0.0153929717004421 -0.1328944 -0.2475455 0.9597189 183 171 147
-0.154605315147409 0.0676718829321131 0.0161402566370418 0.004070197 -0.2115735 0.9773536 184 174 153
-0.161772789122221 0.0756965440436738 0.0179109795301443 -0.04055705 -0.221768 0.9742557 176 164 145
-0.172483818916571 0.0738570498607242 0.01683224378592 -0.128811 -0.2408938 0.9619657 182 170 147
-0.160418409062662 0.0797670125919995 0.0185400732445407 -0.02476701 -0.213632 0.9766002 183 173 159
-0.146369955854849 0.075567442263372 0.0176220241719103 0.02899886 -0.2080422 0.9776899 177 169 153
-0.142285728964527 0.0849581949538286 0.0193924715067525 0.01244706 -0.2199471 0.9754324 187 179 161
-0.127260276126714 0.0846101349103175 0.019832989081247 -0.06294544 -0.2242893 0.9724876 163 149 124
-0.128292236158837 0.0886639397278711 0.020536919656126 -0.06373593 -0.2170325 0.9740814 170 160 136
-0.174348471503373 0.0819803364512931 0.0183500508930286 -0.08729337 -0.2191189 0.9717854 183 172 150
-0.172484431527313 0.0854292964306268 0.0195122772147615 -0.07778222 -0.2214085 0.9720742 177 165 142
-0.155498480888647 0.0865854137592362 0.0204295795518284 -0.0005175661 -0.2143034 0.976767 175 163 143
-0.156602168694576 0.089504865154291 0.021021820143417 -0.0008812102 -0.2131017 0.9770296 186 176 155
-0.153227579549153 0.0956728886811206 0.0225605262852277 0.008033156 -0.2116981 0.9773021 184 173 157
-0.140351748676722 0.0969609369018726 0.0217206065152264 0.01557313 -0.2142523 0.9766542 184 174 156
-0.143227301474177 0.0998656287334977 0.0225860207869395 0.01926089 -0.2133178 0.976793 174 165 139
-0.138715159644886 0.106845968063861 0.0239779216331895 -0.008947268 -0.2046104 0.9788026 181 176 156
-0.179913502913689 0.0879889081216415 0.0190666924730778 -0.1285789 -0.220142 0.9669566 189 176 150
-0.185831912205779 0.0946863996641972 0.0199617866465274 -0.164185 -0.2362741 0.9577149 188 177 153
-0.170276024010346 0.0915914758169499 0.020888671367069 -0.06872018 -0.2161487 0.9739391 177 167 148
-0.163860312309182 0.0967451009379944 0.0220852263303546 -0.03373943 -0.2130145 0.9764663 178 170 150
-0.171321925529126 0.10100214798569 0.0229704404635132 -0.05389042 -0.2148467 0.9751598 178 168 147
-0.178736120266154 0.0994147148645329 0.0221161168557784 -0.1273487 -0.2300812 0.964803 198 188 170
-0.191337335651578 0.103935205654971 0.0214577364360652 -0.1790167 -0.2507162 0.9513645 197 186 165
-0.181752802126715 0.106524781348842 0.023232656159277 -0.1138384 -0.2374181 0.9647142 182 173 149
-0.189687143421512 0.111856864998777 0.0238736058173902 -0.1702621 -0.2339027 0.9572358 195 184 160
-0.177926479757705 0.107719542707182 0.0239375786624445 -0.0967762 -0.2314914 0.9680114 192 182 159
-0.179374557515226 0.113261593134273 0.0250956337245083 -0.08926345 -0.2418881 0.9661895 189 178 158
-0.158570147983229 0.0984099654046119 0.0227527241879394 -0.004117965 -0.2081141 0.9780959 189 182 158
-0.155737754907649 0.103692335532304 0.0242783055941967 0.001209279 -0.2064274 0.9784611 181 170 151
-0.141859595244356 0.107700635490285 0.0241879608471103 0.004796832 -0.204019 0.9789552 180 174 151
-0.15574412251287 0.109105164696537 0.025142395903439 0.004546795 -0.2032853 0.979109 178 170 153
-0.151512987816751 0.1171128382016 0.0264965662309673 0.009828575 -0.2009191 0.9795585 181 174 161
-0.157929687078035 0.11727402044378 0.0265931857778555 0.005160298 -0.2020045 0.979371 183 175 158
-0.169145295978985 0.122188668879662 0.0275266412765604 -0.02500825 -0.2137412 0.9765702 186 176 163
-0.153406149566928 0.123473745559374 0.0279774989871323 0.01176071 -0.1992946 0.9798691 175 166 154
-0.153298915570885 0.127761070250165 0.0288538209469496 0.009895937 -0.2008597 0.97957 175 167 153
-0.174638407376763 0.120339965675957 0.0272565680042835 -0.04342265 -0.2231644 0.9738132 193 185 166
-0.00870089544622143 0.161042225789989 0.0329621038325598 0.08201122 0.192507 0.9778626 167 161 146
-0.160993914568279 0.157272272759935 0.0344855096992071 0.01260915 -0.1687557 0.9855773 183 174 158
-0.0605823452573589 0.15598775900072 0.0372701787995747 -0.04605459 -0.1783817 0.982883 154 143 126
-0.193630365834018 0.118959207440752 0.0251249586348047 -0.1869854 -0.243674 0.9516614 188 178 155
-0.196448373854525 0.12154488244184 0.0247631618377793 -0.2018666 -0.2369498 0.9503182 206 188 126
-0.185905458917697 0.12180617116283 0.026596415568588 -0.1387666 -0.2180705 0.9660171 175 164 141
-0.185609928373034 0.124377842814274 0.0271891971506539 -0.1417785 -0.2242899 0.9641539 176 166 141
-0.188001868017643 0.128264453011836 0.0280474997645283 -0.1784078 -0.2195292 0.9591546 178 166 137
-0.191613387413465 0.13402732202824 0.0287730440063682 -0.1865861 -0.1982396 0.96223 183 172 146
-0.196848073761496 0.134083934683898 0.0266479209600441 -0.1953524 -0.2194478 0.9558662 199 177 92
-0.191294769964032 0.142136191714893 0.0309388945388477 -0.1593294 -0.2221933 0.9618962 192 182 156
-0.17527183418316 0.127846439548174 0.0288217552569821 -0.03765628 -0.2162768 0.9756056 187 177 159
-0.16812774074478 0.13355558881332 0.030181405823075 -0.007356361 -0.2053252 0.9786662 181 170 157
-0.171231323743625 0.139028120860616 0.0312413248872431 -0.01035181 -0.2017708 0.979378 181 173 152
-0.157923312407509 0.135669775645863 0.0304815834883895 0.01237184 -0.1958351 0.9805588 181 172 157
-0.155479558686989 0.140953312530562 0.031459139931445 0.01553608 -0.1859351 0.9824392 180 172 155
-0.107802026261273 0.176318657518341 0.0389028151497486 -0.02209272 -0.2065322 0.9781904 146 137 121
-0.174823841947904 0.149715621983414 0.0333849818074378 -0.01299302 -0.1810051 0.9833964 184 174 159
-0.162655607746952 0.150036252255876 0.0333292932670179 0.01362399 -0.1779017 0.983954 186 175 161
-0.165610584108749 0.157287738119486 0.0345210700432112 0.006948747 -0.1698475 0.9854459 175 165 146
-0.195818942793578 0.155765231632569 0.0325150177430518 -0.1373004 -0.175368 0.9748819 210 192 130
-0.182362415646704 0.152057179166155 0.0334324259375744 -0.06993333 -0.1914296 0.9790118 181 171 150
-0.177937491278989 0.157859928126286 0.0346342352124098 -0.02652012 -0.1591617 0.9868963 182 173 147
-0.195810772621643 0.158156124918533 0.0324011641458159 -0.1385762 -0.1718141 0.9753341 211 194 129
-0.184970545857885 0.165711896129499 0.0356802350718021 -0.08124257 -0.1397265 0.9868516 189 178 157
-0.179064283995159 0.165585001530601 0.0357520946807767 -0.02106595 -0.1501377 0.9884406 184 173 149
-0.175053047501233 0.171424845585465 0.0367394101437926 -0.02641647 -0.1586832 0.9869761 183 175 152
-0.195506371830051 0.173857640197231 0.034307500304268 -0.08852793 -0.1507575 0.9845989 210 192 130
-0.183151418326883 0.173730125681355 0.0367119529978373 -0.06635928 -0.1481793 0.9867316 182 171 150
-0.176896675633225 0.176239717194254 0.037203766275298 -0.03652434 -0.1780099 0.9833506 187 178 150
-0.195265401533533 0.17741058339762 0.0346986473860099 -0.09198437 -0.1636916 0.9822138 210 191 126
-0.182673790837797 0.187034778887547 0.039088201975559 -0.09125071 -0.226154 0.969808 174 160 134
-0.145866516497365 0.207236066903649 0.0368976740329657 0.122877 -0.02943282 0.9919854 193 178 140
-0.195077108535196 0.187832974141115 0.0381633639393216 -0.1174404 -0.2262176 0.9669712 196 179 122
-0.188848457610279 0.190285315141622 0.0393946011014229 -0.1090576 -0.2351683 0.9658169 183 170 138
-0.193185734697715 0.191930142379095 0.0393140644475123 -0.1124859 -0.2275471 0.9672483 192 180 159
-0.187215474317169 0.196659152558616 0.0413145151273952 -0.08924304 -0.2291155 0.9692996 175 162 134
-0.196783036715784 0.202067982351767 0.0408470538605836 -0.09418463 -0.2302979 0.9685516 199 181 116
-0.134535320629463 0.207261621707926 0.0381381328736424 0.080705 0.1005692 0.9916514 200 183 137
-0.10023161131461 0.165784421901888 0.0371591176819618 -0.02893717 -0.1936591 0.980642 166 155 129
-0.0995878479745943 0.12655951639691 0.0300993568884392 -0.02295599 -0.1711328 0.9849805 168 158 138
-0.0523389792316379 0.208104265823895 0.0453442364209805 0.1397721 0.3362292 0.9313505 210 124 189
0.0227712625575752 0.209427323422127 0.0119061286715171 -0.2171968 0.6867582 0.6936777 224 174 188
-0.133734069540317 0.139334352206023 0.0313077016591893 -0.03202099 -0.1837398 0.9824532 179 171 147
-0.131300651591005 0.144863508092219 0.0323051246510524 -0.03725887 -0.182006 0.9825913 178 169 148
-0.0795623666365578 0.124744603597385 0.0298696943134251 -0.0383136 -0.1769242 0.9834785 162 156 137
-0.154564031394238 0.207493161062144 0.045590360634293 0.02271928 -0.1538543 0.9878323 174 167 155
-0.0280180929407258 0.195287333401211 0.0365335666293656 0.08567279 -0.1088047 0.9903644 165 156 134
-0.0963718185464481 0.116407413872683 0.0280178542379084 -0.02670328 -0.1925993 0.9809141 170 161 145
-0.0796091492589844 0.125834859433405 0.0299891007775901 -0.0392985 -0.1778298 0.9832762 154 148 127
-0.0487311653449513 0.185668082186241 0.0421687772257333 0.1168829 -0.1622736 0.9797988 158 150 125
-0.0354148591338489 0.162491443312828 0.030689713787433 0.197956 -0.2248799 0.9540663 183 169 149
-0.0690613867497875 0.190218474591927 0.042715940558615 -0.01332295 -0.149903 0.9886109 162 153 134
-0.122296647825832 0.104343059540518 0.0245453035214998 -0.06562155 -0.2132092 0.9748003 167 156 133
-0.117011945122728 0.162724685219119 0.036173948309152 -0.03027624 -0.1952995 0.9802762 171 160 141
-0.119981140385643 0.122584541333028 0.0286289442092857 -0.0518888 -0.1967914 0.9790713 175 163 145
0.0210157332333835 0.212917762612234 0.0246466635295944 0.06211939 0.8197299 0.5693716 187 177 156
-0.0710917232573537 0.178532015632716 0.0405865913824429 -0.02671986 -0.1693981 0.9851854 154 146 126
-0.0812986282423226 0.112616262841814 0.027235799864831 -0.0390625 -0.1874383 0.9814994 161 151 128
-0.122220382708672 0.0866849781517404 0.0206244330810825 -0.07316903 -0.2166018 0.9735143 172 160 137
-0.11196323305023 0.0904468142839915 0.0222269472318371 -0.05341775 -0.214025 0.9753665 170 158 138
-0.109059740471849 0.0923334571530235 0.0224556447862056 -0.04700755 -0.2124183 0.9760475 149 138 122
-0.112191900147644 0.0985256209359985 0.0238233743245304 -0.0488395 -0.2112188 0.9762179 174 161 141
-0.0904926869039998 0.102391079241798 0.0253869102700706 -0.02251089 -0.2038944 0.9787341 174 163 144
-0.0955095249012957 0.105305551498262 0.0261538066130575 -0.03048356 -0.208177 0.977616 168 159 143
-0.119807591650993 0.0995788635863449 0.0237398602881382 -0.06623562 -0.2112689 0.9751812 177 167 144
-0.110075476834654 0.105119653038202 0.0254208419775177 -0.04634153 -0.2083104 0.9769643 169 157 137
-0.126650435733044 0.10002260702327 0.0232382692138755 -0.06185813 -0.2129906 0.9750941 171 159 136
-0.131823227029115 0.105308023726277 0.0239644309168522 -0.05504639 -0.2156499 0.9749179 174 164 138
-0.115954310960574 0.106958104009974 0.0254880608571813 -0.05692424 -0.2088097 0.9762982 172 160 136
-0.160001793337282 0.203959356116346 0.0446224514562669 0.01823913 -0.1633799 0.9863946 171 163 146
-0.0978676101730677 0.108899789408485 0.0268170804062266 -0.02722047 -0.2065177 0.9780642 177 168 153
-0.0932231943794904 0.110926381130424 0.0273523564568575 -0.02454848 -0.2034147 0.9787849 168 161 146
-0.0895520885957543 0.116160263787992 0.0285734586545794 -0.0152307 -0.1866144 0.9823152 172 164 143
-0.104623040516733 0.11497797569495 0.0276629938412376 -0.04093135 -0.1928929 0.9803657 162 153 133
-0.107995351152238 0.118466723012517 0.0284270399149572 -0.04198049 -0.1911187 0.9806688 177 165 142
-0.099614600437593 0.123153826411021 0.0294475223671481 -0.03146237 -0.1754852 0.9839792 176 165 145
-0.134157957396068 0.11156844645833 0.02525346571673 -0.04634288 -0.2114152 0.9762971 173 163 146
-0.133674153749703 0.11487244909574 0.0259914222756134 -0.04640941 -0.2115617 0.9762622 180 172 145
-0.141213871799681 0.120936548508663 0.0271330328195076 1.085745E-06 -0.2043896 0.9788896 184 177 158
-0.127147614310562 0.117899989317461 0.0271112723082335 -0.05864861 -0.2133312 0.975218 177 165 142
-0.130522450030661 0.128559439163808 0.0292047912186272 -0.04340078 -0.2038965 0.97803 180 166 149
-0.144167782185665 0.12823921340143 0.0285595265784419 -0.0005750502 -0.199224 0.9799538 178 169 152
-0.135609757574627 0.131114334113101 0.029376923929506 -0.02872934 -0.1968793 0.9800067 183 172 148
-0.118179133406308 0.124210091023362 0.0290901537018258 -0.04683096 -0.1912038 0.9804325 176 165 135
-0.111294011003033 0.130600466861269 0.03044759794345 -0.02973228 -0.1726057 0.9845422 175 165 141
-0.103370651670533 0.128947049570494 0.030369177512333 -0.02566864 -0.1730416 0.98458 166 156 138
-0.103383660180524 0.134776485098284 0.0314603747105229 -0.02637126 -0.1694593 0.9851843 171 161 142
-0.101461236204791 0.14315946022511 0.0328411856482014 -0.02626238 -0.1785726 0.9835762 170 158 134
-0.0667731029100028 0.113789371083906 0.0287104495158361 -0.06762572 -0.1633194 0.9842528 150 138 123
-0.0819031064837158 0.118218336765943 0.0288357101015745 -0.02919356 -0.1783663 0.983531 163 154 136
-0.0678102204681884 0.117082398625135 0.0293239295929983 -0.06092574 -0.1670548 0.9840634 155 143 132
-0.0637436122748528 0.120740322745574 0.0303815946805336 -0.05833473 -0.1718725 0.9833905 176 168 155
-0.074119822366229 0.125633249984641 0.0302811688926701 -0.04992796 -0.1835162 0.9817479 161 152 132
-0.0680833826934607 0.129488053338923 0.0313295301859505 -0.05876013 -0.1878726 0.9804342 152 141 124
-0.0819640999345258 0.12877925115209 0.0307083381177382 -0.02696899 -0.1817181 0.9829808 163 158 135
-0.0673979819785596 0.13231448924188 0.0319954253206344 -0.05754551 -0.1889683 0.9802956 164 156 135
-0.0853776939043246 0.134455567142125 0.0317835126089959 -0.02944362 -0.175457 0.9840467 164 154 135
-0.0766227712213762 0.138732165976651 0.032773588103475 -0.04899579 -0.1968476 0.9792091 169 159 135
-0.0561219311239808 0.12385627533516 0.0311208211850075 -0.05160788 -0.1702939 0.984041 154 146 124
-0.0541097968979339 0.129902276042948 0.0323995882349752 0.05311815 -0.1782523 0.98255 160 153 132
-0.0578966391362058 0.131838014503933 0.032625539504081 -0.044726 -0.1871299 0.9813164 172 164 147
-0.0436312395142383 0.130307695135461 0.0327264584520486 0.3590096 -0.1492479 0.9213236 158 150 131
-0.0535681327190077 0.137634533405956 0.0337681637689496 0.1185776 -0.1245926 0.985097 163 156 142
-0.0417843199771087 0.137625861960157 0.0264211648702722 0.4191816 -0.06142026 0.9058225 181 164 131
-0.0621637165435144 0.138824327376104 0.0336747380516069 -0.0510403 -0.1957739 0.9793199 167 160 141
-0.0570846983182723 0.14443327846208 0.0352703525504016 0.08153151 -0.1833578 0.9796594 168 160 143
-0.0593185603977907 0.147785173766162 0.0358347220801935 0.09616879 -0.1964655 0.9757832 160 152 134
-0.0572315550453243 0.153733718851848 0.0368817487292466 0.08073454 -0.223122 0.9714414 163 155 137
-0.0876885303811276 0.142190133338581 0.0331390165957737 -0.03313392 -0.1888545 0.9814459 160 151 134
-0.129301889651866 0.149127135101343 0.0331296613184982 -0.03763876 -0.1768907 0.9835106 176 165 144
-0.0798347914299616 0.146595546420463 0.0342349247560835 -0.04961598 -0.1902957 0.9804722 160 152 133
-0.0750229806450707 0.150332676669639 0.0353617832800121 -0.0559282 -0.1919629 0.9798073 161 154 136
-0.0638002264421546 0.157034492741571 0.0375240846846607 -0.04859488 -0.175854 0.9832161 157 148 126
-0.0428893023541789 0.13949638134993 0.034662539485641 0.3174998 -0.03967803 0.9474279 158 149 121
-0.0408437790468997 0.141754070957538 0.0290657455037023 0.3249049 -0.2033166 0.9236336 180 162 120
-0.0409171357188801 0.14370885965452 0.0322749249968114 0.2712614 -0.1827939 0.9449887 170 139 84
-0.0444827544936014 0.151057726063002 0.0279486697244853 0.300123 -0.1392886 0.9436762 180 161 125
-0.0270570381048866 0.149887442140519 0.0297774794126869 -0.02571349 -0.1472816 0.9887603 162 152 133
-0.0230002217467159 0.154520141067049 0.0307251577116741 0.00173151 -0.1178793 0.9930264 165 153 138
-0.0249199001157844 0.158232726322268 0.0312213835228442 0.01100822 -0.1382422 0.9903373 165 153 138
-0.0407485395615669 0.155841920601242 0.0366067999773019 0.2967642 -0.1869361 0.9364753 166 135 81
-0.0488001032837923 0.157840426932439 0.0380503355578756 0.2659003 -0.2151723 0.9396797 160 150 130
-0.0154220875685517 0.151502968252993 0.0310278409639853 0.02248728 -0.2399913 0.9705145 168 160 142
-0.00415227076714075 0.158679908678064 0.033050925773772 0.3175697 0.09723584 0.9432363 167 158 136
