ply
format ascii 1.0
comment File exported by Rhinoceros Version 7.0
element vertex 470
property float x
property float y
property float z
property float nx
property float ny
property float nz
property uchar red
property uchar green
property uchar blue
end_header
0.0899980871894553 0.142716473163571 0.00892984182959519 0.3274981 0.09398799 0.9401656 182 173 156
-0.136393057215466 -0.0717934335457678 -0.0184960021978699 -5.815683E-06 -0.1772911 0.9841585 177 168 155
0.101416836535624 -0.0927590634612536 -0.00908745291988783 0.05655242 -0.1630294 0.9849991 179 173 161
0.00766500188479136 -0.0574556800588598 -0.0163459078717563 -0.377638 -0.4360307 0.816864 154 131 106
-0.00572202928854793 0.120506406721941 0.023034066034893 0.6898224 -0.04627532 0.7224982 205 192 170
0.12098663886978 0.101620991493176 0.00827520070538698 0.1957174 0.4794539 0.855464 192 183 172
0.123598977068917 0.0316732145205948 0.00207452076416181 0.06600435 -0.07079093 0.995305 195 189 178
0.125408635866984 0.23972756510253 0.0128240466039447 0.01821607 -0.06944421 0.9974195 245 176 222
-0.0861787924292895 0.1375058902425 0.0285175346668267 -0.01846717 -0.1753153 0.9843391 166 158 143
0.0994466966317625 -0.168820369982001 -0.0184425820000314 0.07990719 -0.09207471 0.9925407 190 183 172
0.0264932864957262 -0.175119262159597 -0.0181794420346202 -0.2568573 -0.4238439 0.8685509 148 139 119
0.148483266669429 -0.0310023954265706 -0.0048761656041709 0.3092684 -0.1254506 0.9426639 191 184 169
0.000716222633936892 0.201945568247322 0.0198752456718171 0.1782063 -0.1861581 0.9662234 196 187 176
-0.109228034850265 -0.0338912971578715 -0.00807509326280659 -0.1048233 -0.1990192 0.9743733 165 153 143
0.0670465145173306 -0.0724997221142387 -0.00358748609712309 0.03799761 -0.176139 0.9836317 180 172 159
-0.111943359748729 -0.156846507936511 -0.0311964498475457 -0.08582856 -0.1452376 0.985667 142 135 122
0.128303308943464 0.061160296857712 0.00397754038995124 0.07714754 -0.07855517 0.9939202 194 188 176
-0.0578878303395943 0.18439941980863 0.0383296320362953 0.2227155 -0.2091124 0.9521921 166 158 143
0.0384208097823847 0.0891095374500676 0.0150715132218806 0.06347695 -0.04858343 0.9968001 183 175 163
-0.101320696065627 0.147821812741407 0.0302687265165842 -0.006704496 -0.1737273 0.984771 172 165 152
-0.198348294134081 0.0927636333546303 0.0144966091599563 -0.1903696 -0.2787392 0.9413097 189 174 127
-0.114416644438524 -0.17002096163141 -0.0331554176139001 -0.08179983 -0.162946 0.9832382 182 173 161
0.132706600135436 -0.245206630390663 -0.0268842085654839 -0.007749202 -0.08463415 0.9963819 190 182 171
-0.142305695845039 -0.0644914966264611 -0.0170193505592423 0.006475138 -0.1815707 0.9833566 160 150 135
-0.124721102607734 -0.0750128331748712 -0.0183934904523958 -0.07021465 -0.1812064 0.9809353 146 139 131
-0.121895892421244 -0.150391037914333 -0.0307758055005389 -0.05966448 -0.1485211 0.9871077 160 151 140
-0.111866026079877 0.182066969481009 0.0367532357797161 -0.01712962 -0.193139 0.9810219 161 148 134
-0.0140300626177597 0.224855733559394 0.0367093032745746 0.2131601 0.5139593 0.8309082 207 163 186
-0.185724612899431 0.0355198284807269 -0.0024008597575968 -0.3807862 -0.2541611 0.8890467 191 171 130
0.0948011798628886 -0.323948900995126 -0.0308944525871882 0.05916874 -0.1116127 0.9919887 190 181 166
0.0400860629753926 -0.159112625858252 -0.0143890478211364 -0.1642503 -0.1266443 0.9782551 181 174 159
-0.111689827010766 -0.212174629189721 -0.0390573619219365 -0.1295471 -0.1876242 0.9736605 223 148 202
-0.140542676685998 0.00757956116053016 -0.00249502187060652 -0.01158219 -0.2079024 0.978081 166 156 142
-0.12897800651973 0.196516429767502 0.0393471997481505 -0.01831961 -0.2125359 0.9769815 173 162 148
-0.194726031399408 0.0779475737316161 0.010500548388739 -0.2267663 -0.2448472 0.9426701 197 182 133
0.0248599690903949 -0.187149104853522 -0.0292096324368883 -0.5979946 -0.01853109 0.8012859 180 160 111
-0.0925728437558807 -0.100784290082192 -0.020459010588835 -0.1457321 -0.1735306 0.9739863 123 117 105
-0.150813703531409 -0.0680088551754772 -0.0171641604368058 -0.09006673 -0.2009723 0.9754477 174 162 142
0.029493299943634 -0.185322146333361 -0.0287256604071046 -0.5910543 -0.1441646 0.7936444 174 151 98
0.00434688725313326 -0.0807863648781018 -0.0206337413065777 0.05199436 -0.2002131 0.9783718 158 136 118
0.062349885306194 -0.137764316772154 -0.0133576336334321 0.03975459 -0.1190057 0.9920974 180 172 159
-0.113074405234461 0.186004620697226 0.0374441764248712 -0.02125597 -0.1987027 0.9798293 168 156 144
0.0841508181151048 -0.148027531005891 -0.0152005279472534 0.05193058 -0.1060337 0.9930056 187 180 170
0.0406162401772187 -0.121504767258657 -0.0100581946870409 0.08922194 -0.1306856 0.987401 172 165 149
0.0941898308944796 0.0421102234341938 0.00557696350202869 0.07405259 -0.08328792 0.9937702 191 185 176
-0.0493119248259778 0.0667236160261261 0.0140014388114629 0.1430285 -0.1211577 0.9822747 194 181 148
0.148775279843089 0.14499403776821 -0.000472109719882569 0.1088033 -0.0953334 0.9894814 211 196 168
-0.0879119031271481 0.176727565713711 0.0360847613705081 -0.02668861 -0.182752 0.9827967 166 155 143
-0.133481639151013 -0.0439418445901125 -0.0126827144138502 -0.02071849 -0.2087661 0.9777461 177 168 154
-0.00765017550678493 0.207495755486131 0.0306815076646626 0.5499005 -0.2750504 0.7886423 214 200 178
0.0532437788262002 -0.0977542696611339 -0.00713161668349543 0.05825981 -0.1585931 0.9856237 173 166 155
0.0188192315264032 -0.0326170645555182 0.00499550218923284 0.05352494 -0.1161778 0.9917852 160 151 130
-0.178022079060014 0.0284996485222281 0.00256664610665683 -0.2900797 -0.2840144 0.9138871 183 171 154
-0.0208575652762936 -0.118540736751359 -0.0169031927922486 -0.1573531 -0.1197692 0.9802527 179 170 166
0.155329683274802 -0.101130833541561 -0.013522034408892 0.08348761 -0.1651388 0.9827304 208 197 176
0.108429427860828 0.0734661810890364 0.00700722113479796 0.09713293 -0.08807414 0.9913668 191 183 171
0.101779427177081 -0.313561232014772 -0.0310257348106265 0.06966601 -0.07707014 0.9945888 199 190 179
0.149806137423642 0.0675371793442255 0.0030175075385685 0.6910501 -0.04343976 0.7215004 202 196 183
-0.133697796613092 -0.0245197120435158 -0.00882831760910341 -0.04203037 -0.2059341 0.9776628 184 173 159
0.118391293954482 -0.105716932257231 -0.0124583451814045 0.04951201 -0.1488456 0.9876201 183 177 164
-0.00487649824724812 0.115578734926331 0.0099563054432972 0.3138273 -0.04211321 0.9485457 184 170 146
0.112801497084779 -0.124447184502321 -0.0148136446228992 0.05431888 -0.1299506 0.9900315 188 183 171
-0.171529898986388 0.0525247987317793 0.00872071512168474 -0.1177597 -0.2143944 0.9696224 174 161 145
-0.0767234744514472 -0.201358582392649 -0.0386501193389325 0.09112777 -0.2317706 0.9684927 147 135 90
0.087752283741069 0.0414293785137804 0.00552777091831341 0.08070563 -0.0803381 0.993495 186 180 166
-0.163418188757532 0.160275054236447 0.0322418643840131 0.03151711 -0.1833825 0.9825363 179 170 160
0.0392526698042178 -0.233211567759743 -0.0252695147552458 -0.1148188 -0.1411126 0.9833127 163 154 137
0.0649635084119861 -0.209385237866178 -0.0208040813030068 0.01488269 -0.09837369 0.9950383 178 171 158
-0.0169036991178125 0.118054888638758 0.0227593186241724 0.275028 0.1679914 0.9466459 165 156 141
-0.172004402246952 -0.0234387222544326 -0.0127143759144977 -0.3296044 -0.2344022 0.9145581 197 181 126
-0.0771537430332757 -0.0300976740608522 -0.00252532473924016 -0.159792 -0.201952 0.9662722 176 170 159
-0.0627461665436612 0.109739301226256 0.0248749439575578 0.128655 -0.1547437 0.9795419 157 148 138
0.0965509873145535 -0.126321638997801 -0.0139705357051488 0.0696233 -0.1191109 0.9904369 189 182 170
0.0641875649402409 -0.273258914944065 -0.0260895137994007 -0.05317082 -0.1133976 0.9921259 181 174 162
-0.146269077963773 -0.0656446790418196 -0.0170999995577525 -0.01204744 -0.1852724 0.9826134 163 153 140
-0.0936574572598977 0.01525371495636 0.00403602796123487 -0.1436902 -0.200937 0.9690085 163 158 137
-0.176342575141806 0.150717641356951 0.0306978135788925 0.01029583 -0.2105176 0.9775358 177 166 154
0.0961788377326452 0.193998515149423 0.00578654119476113 0.3189773 -0.08303097 0.9441183 206 196 186
0.00273884281566794 0.0843529563331614 0.0169983612680525 0.1050485 -0.04313976 0.993531 175 168 152
-0.10463978986882 -0.19285764716606 -0.0359056614271154 -0.09686489 -0.139677 0.9854479 164 156 146
0.133242880982283 0.142929494160958 0.00210253474296679 0.04375642 -0.09539694 0.9944772 195 186 176
-0.00957106100831051 0.0994308360195634 0.0080062280558072 0.807884 0.2454577 0.5357928 186 165 127
0.155030151350159 0.0446217884167733 -2.25595923264987E-05 0.6758899 0.0243538 0.7366001 204 194 172
-0.0335815253823187 0.186338916436104 0.0311863703970179 0.1025916 -0.1723986 0.9796702 175 168 153
-0.181444162895985 0.0416287158578866 0.0048051336465007 -0.2938274 -0.2539958 0.9214942 176 165 147
0.138272306952135 -0.146966158115375 -0.0183857795817102 0.0575297 -0.1094775 0.992323 197 191 180
0.0289913723730032 -0.0915237562337353 -0.00454008215379686 0.0307858 -0.1742608 0.9842182 162 155 137
-0.133226978781115 0.0760658714017827 0.0136199168683489 -0.04591006 -0.220983 0.9741965 173 162 146
0.149932997292849 0.0549319875199531 0.0019040455566634 0.4191158 -0.06661481 0.9054857 200 192 181
0.152761018032316 -0.2296642754161 -0.0260211876832455 0.2742909 -0.006322191 0.961626 204 193 168
-0.178894669014118 0.0994421513117719 0.0193783820134973 -0.06391395 -0.2155152 0.9744066 174 163 150
-0.026582235392893 0.130330969343663 0.022761949766674 0.274152 -0.124016 0.9536565 160 148 132
-0.11325288735892 -0.207044270338988 -0.0388564406087996 -0.1153631 -0.163489 0.9797769 167 154 143
0.00436691325784555 -0.0833713186618171 -0.020167568484963 -0.03122677 -0.4858633 0.8734769 153 132 115
0.0124048144848433 0.0977526037148352 0.0176378837053495 0.1640643 0.3637983 0.9169153 179 170 151
0.0241462487398981 0.0594288900256102 0.0141693381897671 0.08054785 -0.07876881 0.9936335 184 178 166
0.116050415282575 -0.111869467373451 -0.0132932178383179 0.04562816 -0.1399453 0.9891074 179 172 157
0.11729206915974 -0.0786229239434345 -0.00810745040140493 0.07734921 -0.1363444 0.9876372 184 176 165
0.0230153194439052 -0.109024733165108 -0.0069022036741497 -0.1171591 -0.1351812 0.9838698 162 156 140
-0.0502240097353449 0.095569560322362 0.0156155511802475 0.1939018 -0.1643108 0.9671629 182 165 125
-0.144000740910521 0.0680002156160414 0.0115209609822501 0.02857985 -0.22508 0.9739211 175 164 153
-0.113115311861079 -0.024103727159915 -0.00627715372315449 -0.1045921 -0.2052636 0.9731019 172 161 151
-0.106079031256303 -0.164612839323184 -0.0317799536704926 -0.07362462 -0.1552578 0.9851266 151 144 132
-0.0654717012360687 -0.109685810781676 -0.0167771359912137 -0.0521786 -0.1083266 0.992745 177 169 162
-0.175852085542817 -0.00454813772508944 -0.0108413412845483 -0.2987857 -0.2835707 0.9112161 197 182 139
-0.0871444431934146 -0.139345080836028 -0.0259122302208773 -0.1544894 -0.1462318 0.9771127 121 119 109
0.0773507957102783 0.0101592771862896 0.00443546837404929 0.09393665 -0.06512188 0.9934461 190 183 168
-0.0217198769985963 -0.0376904931378345 -0.00247214210247509 -0.2134346 -0.1981879 0.9566437 151 149 130
-0.0750614697455391 0.19091363247853 0.0390038515845723 -0.02394569 -0.1745777 0.9843522 166 157 146
0.0746305166553088 -0.146081897287794 -0.0148050653567024 0.03909988 -0.1128502 0.9928424 184 176 167
0.156338926387249 -0.0437438504431565 -0.0133247553731219 0.9993013 0.03684973 -0.006252809 182 166 113
0.0639418125045986 -0.244035878123318 -0.0236479780453943 -0.02585695 -0.09110622 0.9955055 180 173 158
0.062929409698513 -0.174276624284316 -0.0173516219917045 0.03335581 -0.09866631 0.9945614 186 179 168
-0.157869744535015 -0.0101337433570013 -0.00537571967084341 -0.09941231 -0.2324401 0.9675168 173 161 147
0.0455381967774394 0.045076052120126 0.0105381156670392 0.1059923 -0.08212362 0.9909699 185 177 162
-0.116703032515431 -0.200384569055046 -0.0382902285684407 -0.1082543 -0.1548981 0.9819815 155 144 127
-0.148539769171598 0.224792174484041 0.0385739296680769 0.03904418 -0.004296879 0.9992282 205 189 145
-0.130686899256086 0.0511917956680904 0.00818797283946784 -0.05802305 -0.220359 0.9736916 172 162 147
-0.0510020228352727 0.126700037951275 0.0285538895836189 0.4392181 -0.150472 0.8856893 165 157 145
-0.0225265538224581 0.142277964965427 0.0253907290115113 0.08481959 -0.2136067 0.9732306 160 150 141
-0.010945385684498 0.105780565780383 0.00873946851965168 0.7562587 0.187779 0.6267471 191 171 132
0.108714239027143 0.172005166033513 0.00398627774422969 0.001351791 -0.07205407 0.9973998 202 194 185
-0.102656037467125 0.0414783737056729 0.00826918518892383 -0.09796882 -0.2104933 0.972674 144 136 125
-0.13064100999276 0.22592965466704 0.0385033461186841 0.07807629 -0.03312021 0.9963971 215 199 171
-0.0869640287267827 -0.163909193288321 -0.029987611667733 -0.1579343 -0.1567155 0.9749343 168 158 150
0.0566144880659084 0.00625648600335749 0.00584024288693044 0.08318667 -0.08594102 0.9928213 184 177 161
-0.0761832842192537 -0.17701759828441 -0.029877471563992 -0.03255209 -0.2400722 0.9702091 173 164 152
-0.153276067473939 -0.111940737572427 -0.0256819803491655 -0.305978 -0.1695912 0.9368117 191 178 154
0.115970310596566 -0.0843566903021679 -0.00882746723056443 0.07575754 -0.1494464 0.9858634 186 180 169
-0.0529368880093671 -0.0877468290643109 -0.0133018218146214 0.1049303 -0.1886806 0.9764165 149 130 81
-0.132924174601047 -0.204295817554105 -0.0436957611507888 -0.215544 -0.2024957 0.9552677 188 171 134
-0.154837447583802 0.0467878615506524 0.00762812852454098 0.02002167 -0.2203641 0.9752122 171 160 146
-0.0587280835372094 -0.00200091400630831 0.00580874496575334 0.04178899 -0.1511976 0.9876199 179 171 162
-0.155734141024848 -0.111962248360647 -0.0283092525903051 -0.3120356 -0.1647382 0.935679 200 185 140
-0.119739332646144 -0.203057405157932 -0.039135214594777 -0.1835736 -0.1893592 0.9645952 178 165 149
0.0875021415945564 -0.237418895499636 -0.0243348856000921 0.04903456 -0.08752678 0.9949546 190 182 169
0.156420752439216 -0.0613064197552768 -0.0128904482539185 0.6560014 -0.04244914 0.7535651 205 192 163
0.101408985605208 -0.278446783283823 -0.0281393974823412 0.07658128 -0.07944062 0.9938936 195 188 179
-0.142134288304574 0.130092379977562 0.0254342571186947 -0.01731395 -0.216066 0.9762252 179 169 157
-0.112794633429599 -0.0515659651456828 -0.012078538211334 -0.1009121 -0.2118041 0.9720883 177 165 153
0.134260181894428 -0.0609792561682335 -0.00696345876507237 0.06076472 -0.1180585 0.9911457 177 169 151
0.0784490330049544 -0.243626661719437 -0.0240538759527674 0.03374451 -0.08270293 0.9960028 186 177 162
0.0818478932464278 -0.254179036873869 -0.0250542259983235 0.0336123 -0.07616138 0.9965288 189 181 167
-0.11156671055283 0.153946433123186 0.0313941131816986 -0.003228323 -0.1707443 0.9853101 164 154 140
0.0404518001852346 -0.229024012369166 -0.0245370289530913 -0.1138225 -0.1415926 0.9833595 165 157 137
0.127083647556821 0.12752980146119 0.000706016441215818 -0.05895426 -0.1019175 0.9930444 192 185 169
-0.0102291223077263 0.230565544720785 0.0326929632174522 0.1266031 0.8633348 0.4884923 200 183 154
-0.105711599714324 0.0960419964316302 0.0198371972607408 -0.05235135 -0.1938858 0.9796263 160 147 136
-0.048714357904739 0.227543353547102 0.0247620018835931 0.01045007 0.991174 0.1321543 214 191 177
0.152970715624842 -0.176595137333468 -0.0275851921785924 0.2232272 -0.08146545 0.9713563 204 192 170
0.105195136123218 0.0118059501950062 0.00215416884404573 0.07839806 -0.06763033 0.9946255 186 179 164
0.0324443189331679 -0.26114144319183 -0.0290981457872965 -0.12842 -0.09291827 0.9873573 159 149 125
0.0727085198977698 -0.227573752536786 -0.0224201585446232 0.02323536 -0.08788907 0.9958593 187 180 165
-0.109208787394078 -0.21301300206951 -0.0394158144933731 -0.1060302 -0.1597832 0.9814413 208 135 184
-0.0526653166420344 0.0127034955508888 0.00915673732687536 0.03819145 -0.2799507 0.9592544 180 167 137
-0.0806680791010955 0.0186753854492517 0.00671113808479357 -0.1556688 -0.1842504 0.9704736 178 169 158
0.112509004718623 0.0594271548098805 0.00506814742990963 0.09900007 -0.08752161 0.991231 194 186 172
-0.0755223723683142 0.0219454355558225 0.0080547870481856 -0.1504705 -0.1829882 0.9715317 171 164 154
-0.00135494270377989 -0.217135153236662 -0.0402742770284301 -0.1074343 -0.2067956 0.9724677 169 152 115
-0.0286788475184964 0.220346957899132 0.0363118255136751 0.1148981 0.4201256 0.9001627 181 172 163
0.0137201860805193 -0.0891755772832887 -0.0210093625773789 -0.6015126 -0.1921827 0.7754021 145 124 87
0.0920700782572058 0.150333089660792 0.00123336365514259 0.4413881 0.03430206 0.8966604 205 189 165
0.045922163296587 0.056780037285625 0.0113951617535491 0.09512166 -0.08440848 0.9918806 187 179 163
0.149460133548336 -0.0809298525017884 -0.0104449152276496 0.1363534 -0.07371762 0.9879137 182 175 163
-0.198649861107671 0.217224651267093 0.0430391840212719 -0.05420044 -0.2420073 0.9687594 183 154 151
-0.156086114476234 -0.114500647511686 -0.032845078400977 -0.3883895 -0.2158623 0.8958555 201 186 142
-0.054753726771647 -0.0565065286540013 -0.0133042926224863 0.1663464 -0.2425059 0.9557823 159 142 97
-0.181459774170142 0.0913863737797461 0.0171166729476937 -0.124152 -0.2595411 0.9577185 178 167 154
-0.142779603839868 -0.098063221684026 -0.0226988529996847 -0.034608 -0.1539837 0.9874671 135 126 109
-0.129560720441547 0.0759458446414812 0.0140158967325585 -0.05677081 -0.2217398 0.9734519 170 158 147
-0.149667847988125 -0.0401005596846566 -0.0112144679506788 -0.02512041 -0.2168358 0.9758848 173 163 146
-0.047224728634398 0.192647850974649 0.0365387311733684 0.363781 -0.2583862 0.8949301 174 143 77
-0.1524812701372 0.0197784699531359 0.000931406392682799 0.03173243 -0.2324658 0.9720868 177 166 149
-0.11565648421768 0.173802516103679 0.0348818145494403 -0.01556881 -0.1904101 0.9815812 167 154 141
0.0299233944388108 -0.24097638392446 -0.0274121164107938 -0.1130643 -0.117637 0.9865992 159 151 129
-0.164213948093254 0.21963828599244 0.0447574895129591 0.07522479 -0.1054931 0.9915707 175 165 154
0.139526956483233 0.0330061502412681 0.00135753141361991 0.2636204 -0.05611672 0.9629928 194 187 176
-0.0291296659389707 -0.0380157194796397 -0.00409256923283691 -0.14673 -0.2242026 0.9634331 180 173 166
0.0953495508836008 0.15540787381812 0.00186939481864518 0.3920073 -0.01844511 0.9197772 207 195 180
-0.0690280514621308 0.090878101557495 0.0215819285938648 -0.01614793 -0.1653544 0.986102 152 144 129
0.0420212096958715 -0.0589112708592577 0.000245346845851757 0.07912961 -0.142465 0.9866318 179 172 156
-0.183639601612114 0.030965360785021 0.00211225105068849 -0.3394443 -0.2745088 0.8996791 192 176 137
0.151300201847184 0.0969685691376855 0.00492500329359941 0.790547 -0.04314692 0.6108796 211 201 188
-0.134972998056421 0.0933235186328002 0.0177598556942378 -0.04112739 -0.2205732 0.9745029 175 165 152
-0.0636589332069865 0.0884620603925125 0.0217610446270756 0.1267722 -0.1889298 0.9737732 168 158 148
-0.109028992727548 0.119227486056835 0.0244658875453461 -0.02545765 -0.2204468 0.9750667 164 154 143
-0.177669680568964 0.00985881212012585 -0.00293850268688006 -0.3347772 -0.3226367 0.8853416 195 179 126
-0.117487225714368 -0.0210123118233828 -0.0062455119269523 -0.1028601 -0.2028634 0.9737896 164 154 143
-0.101146439232957 0.204088019438629 0.0413265396233226 -0.003048837 -0.1958795 0.9806232 167 156 142
-0.06225994121628 -0.0757037670901228 -0.00957402262877241 -0.041933 -0.1854587 0.9817569 181 173 165
0.00485288184532895 -0.162409301761043 -0.0308371184291091 -0.1256973 -0.1867992 0.9743235 157 138 113
-0.0529940608307048 0.195072562953524 0.0399060786266286 0.3238079 -0.2123619 0.921982 169 160 149
-0.029944546057285 0.0844756039314593 0.0165327469071561 0.01101498 -0.1131617 0.9935156 162 151 136
-0.158434834283752 -0.0992539495570454 -0.0266802590231121 -0.3115799 -0.2121424 0.9262362 201 186 138
-0.0531661885906035 0.0726898591060162 0.0194468161044609 0.156914 -0.1686057 0.9731137 146 136 122
0.0379208692852987 -0.223561118710841 -0.0240316128592556 -0.1706093 -0.07970458 0.9821098 156 146 132
0.120133944064032 0.106726808769468 0.00915634348053834 0.09191318 0.6344255 0.7675 195 186 173
-0.16020837588955 -0.0987176651997215 -0.029146418786381 -0.3115799 -0.2121424 0.9262362 194 177 131
0.0559443612803677 0.0681918113338106 0.0117799403345984 0.09001914 -0.09175114 0.9917048 187 181 171
-0.140987819287665 0.11748252709655 0.0226337921785046 -0.01908393 -0.2176406 0.9758424 176 166 154
-0.144382336278376 0.140033365728192 0.0275893768880556 -0.009820272 -0.2037018 0.9789838 171 161 147
-0.0280703899634903 0.0106573551566252 0.00567973824807469 -0.040914 -0.1819085 0.9824639 177 168 162
0.126301613598196 -0.279296850890347 -0.0297477514804791 0.02565992 -0.07483192 0.996866 195 188 175
0.0287412061682649 -0.219526074585106 -0.0245787269027824 -0.3397788 0.078716 0.9372055 162 153 131
-0.0921561071797797 0.0573544337703961 0.0126810322603638 -0.0980406 -0.207443 0.9733219 174 164 149
-0.0846919550638167 0.0874554750741224 0.0198024853941399 -0.09296523 -0.1705829 0.980948 176 169 159
0.13220528809632 -0.0524382594517572 -0.00590970720907111 0.0597992 -0.1145597 0.9916149 181 173 160
-0.00635446833955011 0.11161368366978 0.0189031085239806 0.8646684 -0.02352301 0.501792 201 187 158
0.14931310521521 0.0541546090822614 -0.0117002965224713 0.8294083 0.07813615 0.5531514 213 200 179
0.10373891678543 -0.276024383505376 -0.0280972811167797 0.07962637 -0.07574727 0.9939427 192 187 175
-0.0599528154569614 0.14463749857555 0.0309256885625811 0.1905068 -0.1812201 0.9648142 171 163 158
-0.187861840647824 0.0432817781330223 0.00051427379173985 -0.311911 -0.2532323 0.9157428 197 182 137
-0.109657229953232 -0.130763214131687 -0.0267858293007742 -0.06524407 -0.1675913 0.9836953 160 151 138
0.00664364483976965 -0.179628407269891 -0.0318055191160193 -0.1849127 -0.1727883 0.9674459 170 158 140
-0.018807682567595 -0.184313958729862 -0.0268401675316133 0.1154247 -0.1914219 0.9746973 172 160 127
0.044757226200515 -0.0207941465686284 0.00450507290852015 0.07989317 -0.1108759 0.9906178 176 169 155
0.0790557317035231 -0.085817977195315 -0.00644241183509178 0.05350732 -0.1787958 0.9824302 166 158 143
-0.183763565710792 0.0269863981469062 -0.00326706702396629 -0.418888 -0.2862359 0.8617435 198 181 133
-0.0468415064349069 0.155871700585879 0.0306175747142202 0.3372864 -0.2028146 0.9192954 190 168 122
-0.11310463172602 -0.171433661305688 -0.0335106812414043 -0.08553664 -0.1625911 0.9829789 183 174 163
0.135971909467782 -0.240713573270534 -0.0263644685205286 0.02117753 -0.07269963 0.997129 188 180 170
-0.0903989788662701 -0.0627582682018224 -0.0119996655781321 -0.1476602 -0.2136127 0.9656946 172 162 153
-0.0586600746356732 -0.165282910316205 -0.0315714287952796 0.1117438 -0.2539901 0.9607301 157 140 100
0.152068478394979 -0.230275059959653 -0.0330917867016459 0.2621152 0.01405115 0.9649343 196 183 148
0.0571910079437955 0.0210882164561007 0.00711347043218125 0.1021575 -0.09125741 0.9905735 184 177 166
0.131671041103445 0.0168158397743084 0.000513292440071839 0.06064115 -0.07693898 0.99519 191 182 170
-0.0502556488660763 0.223480909592024 0.0434805375819723 0.3480674 0.2865142 0.8926134 216 133 194
0.10287364650225 0.12189785584505 -0.00102846906802004 0.2699993 -0.1880131 0.9443259 207 197 186
-0.155184040657503 0.125512623613975 0.0245540223751763 0.03029782 -0.2010435 0.9791136 180 173 166
0.0108858058299132 -0.196617636760262 -0.0330705012563003 -0.1545831 -0.1073378 0.9821317 178 167 154
-0.12333102256339 -0.132653946937022 -0.028161441792862 -0.06139617 -0.1635271 0.9846265 152 144 130
-0.0845156889019733 0.10528771954068 0.0226124870707872 -0.06453977 -0.1689993 0.9835008 163 156 144
-0.00405022909709263 0.147763294534676 0.013900915893857 0.1968808 -0.1100623 0.9742301 192 179 158
0.145569170552694 -0.187335720777647 -0.0222848041508366 0.1552964 -0.08101861 0.98454 188 180 168
-0.17527087566605 0.0789797498657344 0.0148942411831136 -0.1026436 -0.2471119 0.9635351 174 163 152
-0.18808938017016 0.064778387681656 0.00926257538205705 -0.2555642 -0.2724044 0.9276221 190 178 152
-0.193506495293213 0.0819351382016463 0.0132153000786235 -0.2081415 -0.2496171 0.9457105 182 172 143
0.095418133387443 0.104766736233269 0.0109965037072929 0.1298486 0.3038827 0.9438192 191 182 165
0.118462586307151 -0.00811368744231167 -0.000293725214176255 0.09083234 -0.08529497 0.9922068 188 182 169
-0.0907026436426167 -0.0567621346531297 -0.0102836204555244 -0.1577211 -0.2227005 0.9620439 186 177 167
-0.121967238549881 -0.212131920599107 -0.0410676537406439 -0.1751857 -0.1872832 0.9665583 156 142 129
0.129443628098707 -0.174510821374113 -0.0207835208617345 0.04614618 -0.08851851 0.995005 193 185 173
-0.12395316306484 -0.184208088751376 -0.0363519845617021 -0.1447143 -0.162373 0.9760599 165 155 138
0.144390121436794 -0.161222868795477 -0.019924357913571 0.1337177 -0.1072261 0.9852016 191 183 170
-0.0740552509062481 -0.142964045958685 -0.0239546114821802 -0.1266619 -0.118396 0.9848549 169 160 154
0.109685191411605 -0.302525338059369 -0.030590453825208 0.07082733 -0.07325258 0.9947952 192 185 175
0.0402567344098613 0.202335682499728 0.012919377183803 0.3261775 -0.1461028 0.9339498 198 183 161
-0.111854115786939 0.0440979626675114 0.00802606254769023 -0.07620305 -0.215179 0.973597 155 145 134
-0.0139680004886688 0.0659207967338354 0.0163929664583078 -0.0811295 -0.09630552 0.9920399 159 147 137
-0.131632891902328 -0.044385843127814 -0.0126456554257717 -0.05806809 -0.2021304 0.9776356 183 175 158
-0.0195838828058149 0.229084027248003 0.0208786434210652 0.06515946 0.9305536 0.3603113 189 175 138
0.0385526779771964 0.230617330583888 0.0198085026648274 0.1268911 0.2255839 0.9659247 201 183 146
-0.13243935937861 -0.0322438731740782 -0.0104046368108466 -0.02176362 -0.2161906 0.9761086 165 156 143
-0.0153022754032567 -0.142371057901074 -0.0180250365942709 -0.09381272 -0.1232946 0.9879259 189 181 171
-0.00571278986955093 0.0973613371696199 0.0210834925805239 0.3477888 0.1999527 0.9160032 203 188 170
-0.127784093656848 0.171426378263103 0.0342466223110346 -0.02281659 -0.1821617 0.9830038 174 162 148
0.0508109134385101 -0.288687768307488 -0.0296701313556468 -0.1028454 -0.1138603 0.9881592 179 171 156
-0.174021395273186 0.101536103795162 0.0198359682468146 -0.04458463 -0.2181275 0.9749013 183 174 163
0.0711279614881805 -0.101754949361533 -0.00890537350482606 0.04305504 -0.1550347 0.9869704 171 163 145
-0.132610453252841 -0.178007853199864 -0.0362585612169504 -0.2157992 -0.1709918 0.9613493 159 149 130
-0.102928809576642 0.108260056806903 0.0224493628666084 -0.03214271 -0.1969622 0.979884 164 153 144
0.0805723982894248 -0.0299956138660546 0.00149089868968938 0.07854746 -0.0864666 0.9931535 179 171 156
-0.113789330333056 0.173633461242211 0.0348848118024782 -0.01440718 -0.1906749 0.9815475 174 163 147
-0.0139887398616282 -0.047664640777479 -0.00242198538879565 -0.04910496 -0.1866841 0.981192 175 168 159
-0.110033263736345 -0.142977512140136 -0.0288353977799333 -0.07068498 -0.1545749 0.9854493 157 148 135
-0.08299979441934 0.0164855664534344 0.005686874109605 -0.1603939 -0.1952203 0.967555 163 155 145
-0.145680117206063 -0.0601130296585627 -0.0158225270792364 -0.0002054182 -0.1890374 0.9819699 169 157 145
-0.140052770734715 0.0521441976300979 0.0077868933781898 -0.01258786 -0.2124365 0.9770938 161 151 138
0.0937102837314888 0.144226648054118 0.00783589124939643 0.368475 0.0812341 0.9260817 200 187 143
0.114124329248741 0.148949316326826 0.00180742017073082 -0.05069175 -0.1188192 0.9916211 194 185 174
-0.164224976580902 0.154994475775113 0.0311572732315511 0.02924985 -0.1960293 0.9801617 185 174 167
-0.151461858024065 -0.0815056285680401 -0.0197949990007557 -0.1853156 -0.2068269 0.9606668 188 178 160
0.0932590822230993 0.217085653556916 0.0077817256274372 0.3826814 -0.07843095 0.9205452 208 196 179
-0.105371444212903 0.0769303083016125 0.0159433423854881 -0.07828749 -0.2072282 0.9751551 146 136 124
0.0454035178589677 0.19856163152129 0.0126507798183504 0.2682238 -0.1111954 0.9569178 203 189 178
0.114295251741911 -0.174751389718389 -0.0199971608161094 0.04848094 -0.08394552 0.9952903 191 185 172
-0.122289066345612 -0.132091478767443 -0.0275213806484252 -0.06221737 -0.1633665 0.9846016 180 171 158
-0.142198466885714 -0.154221691348795 -0.0328820975991961 -0.1883659 -0.1782268 0.9657916 168 156 131
-0.112535259396971 0.118051058109475 0.024174120704625 -0.02893189 -0.2224628 0.9745118 161 148 135
0.0485135056451692 0.110796003921223 0.00221396570198085 0.2788222 0.08777665 0.9563228 202 189 168
0.0402305453689272 -0.0489230979560389 0.00159932909375715 0.08023902 -0.1174309 0.9898342 179 172 151
-0.00573511847136554 0.0819942292906896 0.0172713060823142 0.05012834 0.004420847 0.998733 197 183 148
-0.1329927263966 -0.176662473912723 -0.0360563695061303 -0.2208045 -0.2024513 0.9540749 155 146 126
-0.136998748165147 -0.180189475184925 -0.0368552633254533 -0.2138338 -0.1883586 0.9585385 190 178 159
-0.0808371030551606 0.206112427497277 0.0418582420726485 0.003395099 -0.159365 0.9872139 183 176 167
0.118346348201943 -0.254937866381737 -0.0272694680456031 0.04777773 -0.089692 0.9948229 192 187 174
0.139293920868534 -0.112727276355464 -0.0141694601807945 0.1074209 -0.1846763 0.9769111 187 180 167
-0.145132016740066 0.163992047889987 0.0324348254476873 -0.006293995 -0.1823742 0.9832091 185 175 160
-0.119166470194788 -0.178389587045564 -0.0352737291717808 -0.08240242 -0.1574586 0.9840816 120 116 100
0.14170096949288 0.02504458902535 0.000479862064845654 0.3539255 -0.005543151 0.9352572 195 188 176
0.091885026228682 -0.205925873394937 -0.0213440146210879 0.067813 -0.08514459 0.9940583 179 173 155
-0.117465506254012 -0.126262707757333 -0.0266707836132879 -0.06680066 -0.162201 0.984494 151 143 132
-0.0928720889931699 -0.18225906784036 -0.0332180802106214 -0.1321394 -0.133791 0.9821604 185 178 174
0.111192377206988 0.0273499838120687 0.00273916135593019 0.08559649 -0.07315426 0.9936406 194 186 173
-0.0233947706997658 -0.0597646389894603 -0.00768694382223711 -0.203959 -0.1947492 0.9594131 178 171 160
0.036521737217945 -0.0446948665722854 0.00242568922500053 0.07319452 -0.1201412 0.9900548 179 171 152
0.0459615426539229 0.0608660307824943 0.0118803410426803 0.09235508 -0.08477097 0.9921111 188 181 170
0.00100776606986497 -0.200755870120997 -0.0345814258690938 -0.09885178 -0.1029202 0.9897655 169 156 145
0.030094966748731 0.175359756792312 0.0172240427953897 0.1253636 -0.07033568 0.9896145 183 176 164
0.0830995833506957 -0.208251694901318 -0.0211961157276737 0.03931045 -0.08714698 0.9954196 186 179 163
-0.121291102706253 0.0308744647028444 0.0045118640302661 -0.08396726 -0.2202339 0.9718264 168 158 141
-0.103640874428754 -0.146553118202342 -0.0289518029265796 -0.08072853 -0.1467218 0.9858781 153 144 135
0.0163622987825313 -0.0608745794548283 0.00132501052897716 -0.09057669 -0.1845059 0.9786488 170 165 150
0.104560953273396 -0.0982076219219725 -0.0104470026539301 0.05654503 -0.1648757 0.9846922 173 165 149
0.0947775522805686 -0.288067419929947 -0.0285652193308248 0.05749897 -0.07983524 0.9951484 193 185 177
-0.169022971023008 0.0146168350653745 0.000220576559332941 -0.161088 -0.2669447 0.9501532 176 164 146
-0.149835861902222 -0.115486960733764 -0.0253809806504848 -0.2423206 -0.1756789 0.9541581 166 153 138
-0.096146258032843 -0.142790853827152 -0.0273184345954303 -0.111051 -0.1559663 0.9815 177 166 157
-0.0816032360171607 0.156965166950109 0.0320404395199895 -0.03551874 -0.1910268 0.980942 159 152 138
-0.117891938154449 -0.146836701243518 -0.029874877449495 -0.06666858 -0.1495381 0.9865058 143 137 125
0.0473378973307234 -0.101026750092384 -0.00780071969727303 0.0790804 -0.1564288 0.9845183 175 167 149
-0.178625435114806 0.223006181669612 0.0456459438481377 0.0003154548 -0.1830092 0.9831111 172 162 150
-0.0205330297030518 -0.172781686765084 -0.033330324350821 0.1046432 -0.2468849 0.9633783 167 146 100
-0.167281264759992 -0.0494685707208899 -0.0170808161259513 -0.3019272 -0.2432001 0.9217883 204 190 143
0.0989292455042091 0.0961093393416425 -0.00406389643060151 0.56734 0.4036004 0.7177967 199 181 131
-0.0482159308090643 0.112744616676285 0.025303440130229 0.3072535 -0.1781311 0.9348072 190 177 154
0.00684757240753442 -0.0206092984274184 0.00691758145214882 -0.2323885 -0.22318 0.9466711 165 158 145
0.0831285342203084 -0.00225357803191117 0.00302496306633671 0.08944484 -0.0587799 0.9942558 186 178 165
-0.128835862151698 -0.182338615474515 -0.0364018000431969 -0.1658341 -0.1803226 0.9695271 160 149 130
0.0177363538363809 -0.172637421138583 -0.0196022845037185 -0.5583354 -0.2726657 0.7835273 153 144 122
0.0288998219966726 -0.0844954760808824 -0.00344442862187291 0.02472492 -0.2443919 0.9693612 154 147 127
0.149221184594172 0.0971715994024397 -0.00268877104912604 0.914697 -0.05091829 0.4009199 213 201 182
-0.124339292659313 0.051768187329852 0.00927917577619264 -0.07152754 -0.2191406 0.9730679 165 155 137
0.13969293671043 -0.242614027862244 -0.0266381837212323 0.06668503 -0.08214894 0.9943866 182 175 159
0.139126879210559 -0.138933553117546 -0.0175260989311633 0.1148863 -0.02882234 0.9929605 194 189 179
-0.102969018755313 0.133888388977056 0.0278149731399354 -0.008203111 -0.1879958 0.9821356 172 162 152
-0.00551115081169751 -0.160224263854956 -0.0214158091293357 0.2782116 -0.2759839 0.9200169 160 149 110
-0.0950652449701294 -0.0891363807455291 -0.0184071813878639 -0.1393572 -0.199002 0.9700401 154 145 137
0.0217661120917924 0.225858171569852 0.00548726577809566 0.03714731 0.5082572 0.8604038 195 173 121
-0.0583485760433023 0.0524047903126635 0.0151501898680912 0.0851433 -0.1421363 0.9861784 134 126 112
0.0570551407302623 -0.20864262955275 -0.0202905854846429 0.000361161 -0.108155 0.9941339 181 173 160
0.00921640317872108 0.231039566269326 0.0197992918689238 0.2041488 0.5207272 0.8289551 200 187 156
-0.139114071901971 0.0222672443549811 0.00107983401827708 -0.01938149 -0.227796 0.973516 159 149 134
0.0301622888839256 0.0470115107334984 0.0124161208652621 0.1034024 -0.08280993 0.9911864 178 171 155
-0.10904819461289 -0.116632453153783 -0.0243474805486121 -0.0783356 -0.1619545 0.9836841 157 147 134
0.0489646580723307 -0.101463125304874 -0.00784440170064907 0.07048184 -0.1539471 0.9855621 167 160 143
-0.0965257695203324 0.12917617774853 0.0271972899140815 -0.01014824 -0.1948086 0.9807888 160 154 145
-6.12269206533567E-05 0.0635864730254624 0.0161684219495904 0.03520754 -0.09565629 0.9947916 181 171 139
-0.006365306217753 -0.0645882957964081 -0.00357475684126513 0.007333431 -0.1459518 0.9892645 161 150 131
0.136399725922576 -0.145092175634175 -0.0181971786375372 0.05206142 -0.1082997 0.9927542 192 186 170
-0.128701886224195 0.228674832816733 0.0431580769398826 0.06452761 0.06114793 0.9960407 184 182 162
0.0945834635785127 0.127103529644895 0.0072741010032851 0.4728502 -0.05654538 0.8793266 216 202 182
-0.0121021843500414 0.183794850043986 0.0185833467407565 0.4073857 -0.2356305 0.8823351 192 175 139
-0.0218450203271282 0.219433590891624 0.0361012513680056 0.03418297 0.3807774 0.9240347 178 168 158
-0.197575757396506 0.196181890382201 0.0383346064967012 -0.03945235 -0.1811435 0.982665 184 173 153
0.0387885844138386 0.072848374576913 0.0135679002252855 0.09686068 -0.08570883 0.9916008 187 180 167
0.0578377208824278 -0.0378216076914282 0.0013394511427553 0.05837831 -0.1025244 0.993016 174 167 152
-0.0691271776962522 0.194459547047406 0.0397135569128871 -0.01893333 -0.1712991 0.9850371 170 164 151
-0.140338444222055 -0.176290439260375 -0.0398035830338879 -0.2366261 -0.2092708 0.948796 190 175 132
-0.0916938877217869 0.0975116237562984 0.0205440847400044 -0.06539346 -0.1759039 0.9822329 140 132 113
0.0649489113554714 -0.303610339060996 -0.0300684576843464 -0.08719385 -0.1097157 0.9901311 171 162 145
-0.0034744300853865 -0.211626336917504 -0.0357477571299876 -0.05728436 -0.1845399 0.9811542 195 136 172
-0.127230069710067 -0.012666453216287 -0.00560002690399464 -0.09485062 -0.2025077 0.9746764 180 169 155
-0.145193241692384 -0.105910374164686 -0.0241662604730498 -0.1383958 -0.1695018 0.9757642 153 144 125
0.0640284139608528 -0.159553297862425 -0.015875514244542 0.04133691 -0.1025905 0.9938644 178 173 158
-0.0895442234535996 -0.0454032326612712 -0.00789324641491793 -0.1585142 -0.2174093 0.9631233 173 163 156
0.0809532055698591 -0.222248507667443 -0.0223844820365211 0.03336629 -0.09041271 0.9953453 185 177 165
-0.162575303556818 -0.00022818631416055 -0.00374057769897881 -0.147802 -0.2636654 0.9532235 183 171 154
-0.161049402807176 0.0882641670066876 0.0170074342342915 0.02823428 -0.2091609 0.9774736 167 157 143
0.0362921798876351 -0.294998841596863 -0.0318971223465731 -0.1131333 -0.09693643 0.9888398 164 152 127
0.140131945140575 0.158747278166444 0.00483761095955959 0.05048789 -0.1431012 0.9884195 197 188 181
0.0413626657167817 0.0763254627828666 0.0133877579246671 0.09522087 -0.08474727 0.9918422 182 175 161
0.0983469627193819 -0.0462065859560363 -0.00232436295952232 0.1150002 -0.1098218 0.9872761 176 168 151
-0.143071443835021 0.152761297639991 0.0302968287667842 -0.01989612 -0.1932382 0.9809501 184 175 163
-0.170494282109434 -0.0299809891340042 -0.0140413690193467 -0.3025483 -0.2584357 0.9174287 199 183 130
-0.112855888322873 0.217764680018104 0.0440311261266795 0.1879323 0.1011513 0.9769595 168 156 143
0.128753682454329 0.207206998511324 0.00866905802651702 0.01031999 -0.08945584 0.9959373 197 189 176
-0.0760600757065858 -0.194035464573951 -0.037558720011572 0.1087897 -0.2866248 0.9518461 139 126 78
-0.165765484989841 0.110701167123842 0.0219805188648843 0.009500549 -0.2157047 0.9764124 182 172 160
0.152835328593352 -0.195074292331222 -0.0265733383499218 0.2279923 -0.136971 0.9639806 205 193 169
-0.0176886616639907 0.175463416973474 0.0175456734732793 0.9312245 -0.02776748 0.3633867 191 173 137
0.11433464306771 -0.024440140802754 -0.00178000152881938 0.09965158 -0.1040542 0.9895667 189 182 167
0.148893132207897 0.138846083567644 -0.000520480706785509 0.1080543 -0.07067523 0.9916296 216 202 182
-0.121951335016239 -0.0583044835660539 -0.0147241777228023 -0.09046184 -0.2032418 0.9749407 163 154 146
-0.119275791176832 0.172575389732767 0.0346875167173128 -0.01585691 -0.1865291 0.9823214 169 158 145
0.115719748790912 0.029743508303432 0.00265761109906901 0.08043204 -0.07222845 0.9941397 193 186 175
-0.0748244126421652 0.0107205095488089 0.00588331171406525 -0.01239009 -0.1946836 0.9807878 176 169 160
0.129459244554968 -0.143341528839091 -0.0174382185517936 0.04033511 -0.102455 0.9939196 185 180 166
0.101456874914086 -0.296672094679255 -0.029493712957766 0.07147512 -0.08052789 0.9941864 197 189 179
0.0890342135246255 -0.00359248048496041 0.00246787906079887 0.0808985 -0.05909138 0.9949692 188 181 169
-0.14537432423963 -0.0406265272616505 -0.0122799436683074 0.01214574 -0.2186075 0.9757373 147 133 112
0.0186014343841531 0.0994277811675611 0.00870611322719045 0.0244645 0.3127453 0.9495219 184 163 114
-0.0548867650387422 0.0120432878314437 -1.46699782266335E-07 0.06439872 -0.260504 0.9633226 167 146 111
-0.139964904404705 -0.12241325089622 -0.0270694942569892 -0.1108247 -0.2436951 0.9634991 180 169 156
-0.131023187917379 0.0301283764861359 0.00358333360630825 -0.06535586 -0.2255743 0.9720313 158 149 139
0.152751186905532 -0.0933499459213444 -0.0117315613459777 0.1295153 -0.1384374 0.981866 188 182 168
-0.144276302793783 0.00676076923231539 -0.00226866332222275 0.01509899 -0.2050314 0.9786389 181 172 163
0.080609442823823 -0.22566007921991 -0.0227242727091224 0.03216486 -0.08795458 0.9956051 185 178 165
-0.08443036455294 0.0196681312498176 0.00608428761398894 -0.1483403 -0.1924393 0.9700321 177 167 158
0.074072232380953 0.217312026243535 0.0153913239517087 -0.01061557 -0.08951727 0.9959287 188 178 165
-0.0945188321063773 0.133423865244591 0.0279182605717652 -0.01286266 -0.1860167 0.9824624 172 164 154
-0.124905326425326 0.208364062674719 0.0421273197312148 -0.0309737 -0.1746418 0.9841447 174 162 152
-0.139030996058199 -0.17612341063204 -0.0374986641001029 -0.2215253 -0.2150954 0.9511364 196 181 149
-0.103034566213215 -0.104317591681998 -0.0219016955652454 -0.0968771 -0.1603845 0.982289 135 128 111
0.0574871167172352 -0.179573437457025 -0.0176410188876262 0.03023072 -0.1051562 0.9939961 183 176 165
-0.173499854088836 0.195601798528152 0.0387697158937446 -0.0008698843 -0.1965262 0.9804982 184 174 161
-0.0518407324693219 0.0306651324521735 0.0118791813437659 0.1146546 -0.1327239 0.9844992 188 176 153
-0.114240144621821 -0.184523526130264 -0.0355083222606409 -0.09147356 -0.146943 0.9849063 181 170 157
0.0406551406126933 -0.146144320775225 -0.0130892475555541 0.08453036 -0.1140126 0.9898766 180 173 160
0.0866828637109337 -0.263616503621374 -0.0260633092822854 0.04342433 -0.07921347 0.9959114 188 180 167
-0.149033600029164 0.126092720486614 0.0246787001898556 0.0132066 -0.2106708 0.9774678 185 174 158
-0.00549678973122691 0.183841752793651 0.0182773539616055 0.1282479 -0.1278273 0.9834697 192 180 160
0.00418401513611688 0.183190787340064 0.0175050788990158 0.06009168 -0.0958355 0.9935817 195 186 175
0.0873013968285098 0.0240656891333367 0.004453364630536 0.08384471 -0.07714956 0.9934878 191 185 174
0.0937781163428771 0.129985985027248 0.00761964126176834 0.4309208 -0.1168377 0.8947939 212 198 176
0.153037117121439 -0.197378828105687 -0.0230067512840717 0.1694159 -0.168326 0.9710637 198 189 169
0.127975339990786 0.0433753145577987 0.00273730999031291 0.06828462 -0.07018171 0.9951943 194 189 180
-0.113931219846102 -0.0896997891016064 -0.0196651427622527 -0.07568155 -0.1829156 0.9802113 181 171 164
-0.0889414147721438 -0.0102915830409754 -0.000117217675685843 -0.156964 -0.1886344 0.9694222 178 169 162
-0.1868307590248 0.215057147902127 0.043032880578223 -0.05111244 -0.2446388 0.9682662 170 156 137
0.0925630819486677 0.0681833392188679 0.00781874955975584 0.08004947 -0.0896265 0.9927533 186 178 163
0.00562458384990638 0.139617898655234 0.0138075036724636 0.2892852 -0.05307397 0.9557705 192 184 170
0.124380939280856 -0.16244929276665 -0.0194363805405747 0.04558646 -0.09229514 0.9946876 191 184 169
0.00592808061486594 0.051514876349143 0.0142655601314965 0.04731636 -0.1022615 0.9936316 183 176 166
-0.133826440391684 -0.200184378815788 -0.0430322985260795 -0.2420656 -0.1994154 0.9495461 194 181 143
0.00235506150924725 0.168240399831935 0.0161145146010141 0.1152007 -0.01570626 0.9932181 191 181 166
0.0437749329431539 -0.0852633193336099 -0.00470633185960628 0.07644591 -0.1744079 0.9817016 173 165 148
-0.14523854952304 0.0907205847091997 0.0165718929726492 0.01010693 -0.2139705 0.9767878 181 174 160
0.106712646937704 -0.242590090925321 -0.0256129984196093 0.06622132 -0.08307303 0.9943408 189 183 169
0.133798547434211 -0.168721941895814 -0.0205032383534587 0.04013896 -0.09485706 0.9946814 191 184 172
-0.0269533429172818 -0.0832735033021704 -0.0122784224546589 -0.1747429 -0.1850443 0.9670696 183 174 164
-0.0808173296095597 0.227265754518019 0.04532764504317 0.04395632 0.2643363 0.9634283 165 158 155
-0.0484974737533691 0.152417894236383 0.0247753564287003 0.3763982 -0.216418 0.9008261 185 169 133
-0.0583596176317601 0.222935057429965 0.0439435287980012 0.1220943 0.07309202 0.9898235 218 150 199
0.0752887305318249 -0.224556772083906 -0.0222735736265984 0.02906946 -0.08990537 0.995526 187 177 163
-0.133862290107342 -0.152420636525341 -0.031653178926251 -0.06297947 -0.1549116 0.9859189 173 162 151
-0.0197360433102086 -0.00596850222259759 0.00474435855437152 -0.04724878 -0.2116288 0.9762074 178 172 168
-0.152574171552962 -0.123072288728582 -0.0271529529931048 -0.3202994 -0.2741406 0.9067829 201 187 145
-0.145400471813054 0.204270398091176 0.0408238863664848 -0.01654568 -0.1734553 0.9847028 177 167 158
-0.189796768750633 0.0748337659423891 0.011870677822221 -0.2254457 -0.2599972 0.9389226 185 172 146
0.103048194915036 0.113090195461181 -0.00184723944967941 0.2780577 0.04586771 0.9594687 207 195 176
0.13810174434342 0.0590147740006958 0.00321772989195032 0.09395519 -0.07822158 0.9924988 192 184 169
-0.0328295636954515 -0.101194088326553 -0.0172485129628383 -0.2028792 -0.1703938 0.9642645 181 172 161
-0.0233821876828068 0.0879847191576036 0.0178688173740758 -0.08435857 -0.1517243 0.9848164 171 163 157
0.148702209300362 -0.0374011229616352 -0.00561515816951971 0.3531556 0.009481253 0.9355165 185 177 162
0.135099363975781 0.0132920853755983 0.000161807130283437 0.06211923 -0.07685714 0.9951051 186 178 164
-0.0044696809549859 0.0599168724722982 0.0153942115266975 0.00276173 -0.09122269 0.9958267 194 183 148
0.118728823930954 -0.00677103220878983 -0.000253734266046857 0.08710654 -0.07972606 0.9930036 184 178 165
0.140015395822348 -0.076519132007988 -0.00932375682843692 0.09593651 -0.1087697 0.9894268 185 178 165
0.0673613343402605 0.218816468911707 0.0155115946755516 -0.01565926 -0.09206306 0.99563 188 180 166
-0.0725759611919966 -0.108633338003831 -0.0179995535518105 -0.1965863 -0.193378 0.9612277 118 114 102
-0.0591476755801564 -0.169292160546325 -0.0247946840826249 0.09935872 -0.2970693 0.9496724 139 132 108
0.11577275300716 0.0414396980125945 0.00329112244550495 0.08804979 -0.08074854 0.9928378 194 186 174
0.0943604309161855 -0.0341670653735583 -0.000524836953546853 0.1136089 -0.09347803 0.9891182 176 166 146
0.0671443390865135 -0.313324274178893 -0.0308920019074709 -0.09117461 -0.09671756 0.9911271 174 165 151
0.0861371697351211 -0.260436268885561 -0.0256416327410183 0.03912805 -0.07773025 0.9962063 187 180 165
-0.0691541754335175 -0.0277757773856748 -0.000956837865549176 -0.07247418 -0.1923264 0.9786511 149 143 135
-0.126433206043929 0.0381979192994722 0.00565018434047052 -0.0724786 -0.21417 0.9741037 175 164 152
0.0174407127380737 0.119429282983785 0.0103292333828905 -0.04674481 -0.1109907 0.9927215 180 169 154
-0.103313850165684 0.087863554860793 0.0181936005470365 -0.06585415 -0.201795 0.9772114 150 141 128
-0.104209487890403 -0.174446745077527 -0.0332494600296266 -0.080267 -0.1521416 0.985094 166 158 147
-0.11323714756634 -0.000254040358471097 -0.00159823024879532 -0.1014706 -0.1920517 0.9761249 177 167 155
-0.145621571752822 0.0890996144947013 0.0162905978960028 0.01871431 -0.2122258 0.9770414 188 177 164
0.0364871834511461 -0.134891043059366 -0.0114161956572584 0.08528224 -0.115745 0.989611 170 163 147
0.0554400108580114 0.0204673544156494 0.00741061697990097 0.101883 -0.093316 0.99041 181 175 162
0.102869545431739 0.0958084547557531 0.00953982624629415 0.1537559 0.03361607 0.9875369 193 181 172
-0.184049850443713 0.145537539154707 0.029505905747797 -0.0408237 -0.2274269 0.9729391 179 170 156
0.0735579367245222 -0.287983827738656 -0.0273967555867247 -0.01326627 -0.09964453 0.9949347 182 174 161
0.121626822680035 0.131444604715686 0.000345461000499259 -0.05673857 -0.1074917 0.9925857 189 183 170
-0.139752693318623 -0.172098123134163 -0.0366220164157765 -0.2299148 -0.2410554 0.9428847 188 172 139
-0.0752651734147242 0.0927797594184455 0.021354419819114 -0.08982163 -0.1551195 0.9838039 153 143 129
-0.190750142081431 0.138973517583202 0.0275116063485021 -0.06486318 -0.2308874 0.970816 173 160 143
-0.1644503674113 -0.055233881636474 -0.0168860879103877 -0.2717314 -0.2483603 0.9297737 192 178 154
-0.119901311346033 -0.156131921034442 -0.0314614598962107 -0.06841439 -0.1532861 0.9858108 178 168 160
-0.140724551382996 0.226692592513788 0.0463341595074085 -0.01522688 0.04000752 0.9990833 183 180 172
0.0369075255685162 -0.00343977874147627 0.0069777371839016 0.09395513 -0.1019732 0.9903403 181 174 153
-0.140796455142863 0.00394115489702551 -0.00311326097478126 -0.008873314 -0.1968197 0.9803995 188 179 166
0.0704630875458864 -0.243809674088208 -0.023830381146387 0.009352122 -0.08734656 0.9961341 183 176 162
-0.0598300110378672 0.140205236878638 0.0301408525427817 0.1446229 -0.1371159 0.9799405 163 155 143
0.0368122365715805 -0.280339309954821 -0.0304103970455741 -0.1261464 -0.1015741 0.9867977 162 154 132
