ply
format ascii 1.0
comment File exported by Rhinoceros Version 7.0
element vertex 468
property float x
property float y
property float z
property float nx
property float ny
property float nz
property uchar red
property uchar green
property uchar blue
end_header
0.11579189883971 0.0466910108558305 -0.00109735799984426 0.03325566 -0.1513387 0.9879224 195 181 164
0.112322422544867 0.0446620455027866 -0.00069893669121121 0.03734816 -0.1380764 0.9897171 209 194 181
0.100491488292869 0.0475008158926651 -0.00195353231835783 -0.08488122 -0.1274234 0.9882097 211 196 183
0.115210351269667 0.0487333426277443 -0.000477299312176521 0.02261247 -0.1593775 0.9869587 199 185 170
0.113026052938535 0.0498365733435908 6.10157709848846E-05 0.00470984 -0.1520424 0.9883627 207 193 183
0.110115482168838 0.0548940805243666 0.000402585316796863 -0.02879604 -0.1420788 0.9894364 212 196 184
-0.022365336986225 0.17831349327488 0.0266223750808044 0.122784 -0.1305332 0.9838116 207 191 175
0.055131526018536 0.111369697401022 0.0130170758804426 0.3127461 -0.1337118 0.9403781 205 189 172
-0.00759423313492535 0.199821798403796 0.0269151855134225 0.1409127 0.04470494 0.9890122 220 183 185
-0.102570785202953 0.0397935570952922 0.0149472601212594 0.1817381 -0.1749844 0.9676527 190 175 139
0.0173415158248592 0.126295854743123 0.0118625868667425 0.2438115 -0.1638393 0.9558831 209 192 177
0.106760976830912 0.178434122684247 0.013338876097758 -0.05062232 -0.1091639 0.9927339 208 190 175
0.0314250419911634 0.0577289104819123 0.00500328370353408 -0.1248139 -0.1338148 0.983115 203 188 170
0.0529634625805983 0.110887021933146 0.0128598170309911 0.2154979 -0.1711471 0.9613892 205 189 174
-0.124142087783266 0.0245350520167059 0.0145216018187093 0.0544403 -0.197308 0.9788288 188 170 139
-0.110797651315521 0.0693026950089131 0.022413604664192 0.1704832 -0.1748716 0.9697192 194 180 153
0.0940832971129465 0.197420783521696 0.0153357363568775 -0.05191721 -0.1312836 0.9899845 205 188 171
-0.0510982218482826 0.057311527176872 0.014245667850689 0.08928769 -0.1625986 0.9826441 195 178 150
-0.0126719125095091 0.177762987769943 0.0250416519694974 0.1221321 -0.1122328 0.9861478 209 193 176
-0.10230557129519 -0.0131511481055335 0.00488207752963542 0.1261932 -0.1660483 0.9780098 193 176 150
-0.103018740818434 -0.0347941702581404 0.000984805506427128 0.09124333 -0.1892211 0.977686 192 176 149
-0.108602926701873 -0.0342940183344176 0.00173015524807135 0.04381127 -0.1843024 0.9818926 192 175 147
0.0787718421122573 0.135596244901825 0.00768110183660105 -0.0496172 -0.09378321 0.9943555 175 158 145
-0.0109285026143425 0.00250099130568326 0.00340350662459059 0.02961907 -0.1534547 0.9877117 201 186 169
0.0568987798704356 0.0403808449826594 -0.00528977894267117 0.8569629 -0.09079723 0.5073169 197 180 152
-0.0152004479179754 0.0102977558024333 0.00484048420286534 0.03265328 -0.1419482 0.9893354 201 186 168
-0.115926161133579 -0.053249917296022 -0.00745788277329444 -0.1143321 -0.2234091 0.9679961 193 171 124
-0.107023169832339 -0.0487214617319581 -0.00136676205529525 -0.02954281 -0.2263445 0.9735992 194 177 152
-0.105500180841517 -0.0425361671933465 -0.000247400393673644 0.08337575 -0.1941417 0.9774239 194 178 149
-0.113866427520791 -0.0422059244463949 -9.08206134595108E-05 -0.04008177 -0.2215295 0.9743296 190 175 142
-0.111012279500467 -0.0359193238368308 0.00153782928991401 0.02017017 -0.1761445 0.9841577 191 175 149
-0.0865009327126335 -0.037373439609544 -0.0017752043327034 0.07023572 -0.1747408 0.9821062 195 178 149
-0.104613110459031 -0.0390027019140322 0.000317780001416856 0.09890711 -0.1940156 0.9759997 193 177 150
-0.0952757518509518 -0.0371757422541473 -0.00021713295867859 0.1223329 -0.1786833 0.976272 197 180 158
-0.104763098884497 -0.0366273230676497 0.000565993013722205 0.08959346 -0.1907568 0.9775402 196 179 161
-0.10758751528501 -0.0303826203942517 0.00227286589021909 0.04978802 -0.1836077 0.9817379 193 177 151
-0.0914490268226534 -0.0367281853338198 -0.000912405143646738 0.1106143 -0.1729315 0.9787028 197 182 161
-0.0874334440870413 -0.0347190017863096 -0.000988588087784917 0.09002021 -0.1785222 0.9798093 197 181 159
-0.0967065365132457 -0.032929130504099 0.000570700005367228 0.1256437 -0.1814745 0.9753362 197 181 156
-0.0982056514916804 -0.0305970101118042 0.00138726492725884 0.1249944 -0.1814847 0.9754177 194 176 149
-0.10092151461924 -0.0265995062234612 0.00237576973211423 0.1096088 -0.177722 0.9779575 191 175 145
-0.0901490547535874 -0.025389218831795 0.000859667478685197 0.1113099 -0.1698052 0.9791712 195 178 152
-0.115535888350008 -0.0302625954734453 0.00262466191439653 0.0115353 -0.1904873 0.9816219 187 171 133
-0.118548396921711 -0.0235171676187006 0.00393477684260063 0.01561351 -0.1977792 0.9801223 188 165 129
-0.109010565061163 -0.0282425308639038 0.00307176598831756 0.02670391 -0.1815913 0.9830114 192 175 144
-0.107123133124258 -0.0286365180927091 0.00252220132198218 0.07696635 -0.1783839 0.9809462 195 179 157
-0.102490721665372 -0.0253125098319059 0.0027251037130326 0.1032621 -0.1785497 0.9784973 195 178 158
-0.114287770622812 -0.024073280214346 0.00373891587714938 0.01837572 -0.1909151 0.9814345 191 174 145
-0.111157727411068 -0.0204591685773794 0.00452187494721554 0.02528611 -0.2029972 0.9788527 191 174 147
-0.100465919263066 -0.0241914264314026 0.00264553700273669 0.1198959 -0.1728463 0.9776242 190 174 140
-0.10242772216238 -0.0182693299306054 0.0038998789473646 0.119869 -0.1699113 0.9781419 193 176 150
-0.0943561311326168 -0.0163466802709414 0.00315272871003106 0.1310672 -0.1675473 0.9771127 195 179 147
-0.104454214689 -0.0170345661644178 0.00442663523781184 0.1000895 -0.1743709 0.9795799 195 178 154
-0.106073672489697 -0.0102768842854284 0.00576263262467451 0.09632261 -0.1781174 0.9792835 195 178 156
-0.114429454506253 -0.0141479109467383 0.00565090579182452 0.05562255 -0.2053637 0.9771038 192 175 147
-0.103807792671165 -0.00835116812776227 0.00583441724890836 0.1077731 -0.1764047 0.9783999 193 177 151
-0.118185935926005 -0.0105321223936723 0.00654679812340535 0.05364636 -0.2094799 0.9763402 191 172 141
-0.11832079280679 -0.00892960420552169 0.0066815222677821 0.07203283 -0.1900072 0.9791366 193 175 147
-0.123354129981563 -0.00510256114239549 0.00810226139056809 0.0665443 -0.1973329 0.9780754 192 173 150
-0.119212360684114 -0.00205559049695581 0.00830698935095782 0.0686658 -0.2022781 0.9769179 191 175 144
-0.11004207168395 -0.00660071729975498 0.00706448293687198 0.08292269 -0.1906993 0.9781399 193 176 149
-0.103939588393135 -0.00623003693405633 0.0062885265384247 0.1145826 -0.1794669 0.9770683 191 175 145
-0.113791760664058 0.000447664520260127 0.00845336453507915 0.07158636 -0.2026624 0.9766285 192 176 149
-0.115447324302371 0.00215613734284414 0.00888106000095437 0.06940574 -0.2045902 0.976384 190 173 141
-0.111574535314977 0.00583605098807416 0.00970595479930075 0.07948703 -0.2094752 0.9745778 191 174 147
-0.0346246731941752 0.173335300117889 0.0274738632543998 0.1547449 -0.1291376 0.9794782 205 189 171
0.11554062146933 0.0719245992532446 0.00265706740443379 0.09140468 -0.1337939 0.9867849 201 187 173
0.00921350684844879 0.0233393464132633 0.00612892113875423 0.3790762 -0.04153674 0.9244328 202 187 168
0.0549376875853022 0.0555747349027795 0.00790762762780919 0.3473065 -0.1348248 0.9280089 202 188 174
-0.141063421887866 0.0746194895134153 0.0252397051332332 0.05658869 -0.2067037 0.9767658 188 172 142
0.0659818244384821 0.128634052574877 0.0067254954061947 0.4109694 -0.06847438 0.9090739 214 197 184
0.0782096415313641 0.188427378310892 0.0128663440735621 -0.04298566 -0.1185076 0.9920223 205 188 170
-0.0194746125716546 0.0524590878306881 0.010567977646609 0.06008671 -0.1329014 0.9893062 206 191 177
-0.0605673360295952 0.0237706072982444 0.00919026404449148 0.05189673 -0.1780687 0.9826486 192 175 142
-0.055792150960508 0.160072374910654 0.0292475514356079 0.1451737 -0.1173148 0.9824265 200 182 157
-0.0231936546777539 0.192769551038998 0.0285897955915264 0.1408428 -0.1297205 0.9814968 203 187 170
0.0314338537976696 0.0641052200478032 0.00612741254382544 -0.121087 -0.1435411 0.9822087 200 184 168
-0.0137227925941553 0.0514862615676996 0.0100285917588466 0.04261518 -0.1319066 0.9903457 205 190 174
-0.0420974430642788 0.178922398207966 0.0296939457301753 0.1565568 -0.137479 0.9780539 201 185 165
0.0186437340151605 0.057092244689014 0.00377589162572983 0.03341807 -0.1267156 0.991376 205 189 171
0.0566530186395066 0.112233966839024 0.0132357208511326 0.4028711 -0.114521 0.9080638 207 191 173
-0.00939112116437057 0.206016025449706 0.0276879812482412 0.08947421 0.2612301 0.9611208 242 172 205
0.00955019452055195 0.0992336359386613 0.0121649907197569 0.4032198 -0.06119585 0.9130547 207 191 167
0.0192173759546849 0.11834925392536 0.0108272782874028 0.1382941 -0.0953403 0.9857916 209 192 176
-0.052325912839463 0.198478971710807 0.0226645431333546 -0.363163 0.5304172 0.7660093 180 151 116
-0.0620618552979862 0.0901850007052948 0.0208967697540457 0.07257303 -0.1665124 0.983365 198 181 155
0.0139008810428066 0.19095082694064 0.0190795486866633 0.1943011 -0.08559971 0.9772 203 185 163
0.0873368400047875 0.127927161932501 0.0071885739043004 -0.0607211 -0.1041978 0.9927012 208 192 178
0.041811392890326 0.073886330224718 0.00887567181040828 -0.1035505 -0.0949195 0.9900846 207 191 177
-0.121193592136869 0.19938221166938 0.0431994791526539 0.1299287 -0.1487771 0.9802979 191 167 119
0.0605279891471103 0.195726182598435 0.0129025151356473 0.437873 -0.06790715 0.8964685 211 187 173
-0.0195876007443393 0.0463648142591715 0.00978138964347157 0.05787749 -0.1190991 0.991194 205 190 177
-0.00891557838911095 0.208564406552222 0.0221904613063178 0.1153789 0.7591671 0.640588 207 190 170
-0.0733200244290281 0.000315864990506065 0.00520227135136904 -0.000402523 -0.1870548 0.9823494 190 174 138
-0.0165808736129259 0.177955855734885 0.0255222214464514 0.1122279 -0.1226412 0.9860852 207 191 176
0.0260482134871441 0.174203705279538 0.0176469756584784 -0.0568568 -0.08692718 0.9945909 206 189 171
-0.113718569326981 0.160654642920232 0.0364203992979898 0.1383406 -0.1441381 0.9798399 196 179 154
-0.0789145446563465 -0.0335894761724053 -0.00120271801773368 0.006841648 -0.1682902 0.9857138 191 174 143
-0.0741054941704219 -0.0327580582471392 -0.00071217155801323 -0.007593972 -0.171827 0.9850979 192 176 151
-0.0683734590577797 -0.0275861282972553 0.000123464594084161 0.0006705252 -0.1733958 0.984852 189 169 136
-0.0806037980968376 -0.0278068256530356 -0.000176467635828348 0.009320843 -0.1737739 0.9847414 192 176 146
-0.0789306762636209 -0.0251300059904469 0.000365540260492861 0.002625371 -0.175296 0.9845123 193 174 145
-0.0764287956228628 -0.0198105438538736 0.00129393658491148 -0.003357384 -0.1811841 0.9834434 192 175 145
-0.0825516109263048 -0.0195144716114242 0.00129519789051753 0.03162033 -0.1761706 0.9838517 195 179 154
-0.0663269899264841 -0.0208476874761137 0.00104587386193267 0.009598785 -0.1787308 0.9838512 191 173 139
-0.0666027937858918 -0.0165625628050662 0.00214537686368717 0.009494563 -0.1844601 0.9827942 194 175 148
-0.0702849393329036 -0.0136218541094482 0.00271470737712438 -0.006817064 -0.1852634 0.9826652 190 172 140
-0.0836842048964771 -0.0135323563878454 0.00241491820759217 0.03549812 -0.1808719 0.9828658 191 175 140
-0.0767639007524489 -0.0106596468811986 0.00304091374976223 -0.003189909 -0.1842377 0.9828765 193 178 149
-0.0740138746405751 -0.0112656654634412 0.00316716325675941 -0.009553825 -0.1856902 0.9825619 193 174 146
-0.0605921206976948 -0.0183441724718314 0.00165184826964095 0.02990422 -0.1793242 0.9833354 196 179 152
-0.0561340412152452 -0.0160389687206952 0.00184828102168506 0.03884153 -0.1767233 0.9834939 191 173 141
-0.0425587039288061 -0.0145051830962586 0.00147043689028593 0.04846992 -0.1736992 0.9836053 198 182 160
-0.0419976159162748 -0.00907496003282826 0.00218993367572538 0.04951079 -0.1792288 0.9825608 199 182 160
-0.0621097063784807 -0.0140100258588345 0.00245396601910287 0.02866025 -0.1828256 0.9827275 192 174 144
-0.056189338946088 -0.0105268064774254 0.00287358977110078 0.04518665 -0.1735724 0.9837839 192 175 145
-0.0557134337249564 -0.00625542407229529 0.00353710616721171 0.04630142 -0.1727329 0.9838799 192 174 142
-0.0497584936782275 -0.00731530895773036 0.00303782771184793 0.05435523 -0.1802952 0.9821095 197 179 153
-0.0460929866161518 -0.00596418589891967 0.00329312786360415 0.05423162 -0.1795784 0.9822477 194 177 151
-0.0497116386510227 -0.00277443210653094 0.00380337226090031 0.05102442 -0.1758895 0.9830866 195 178 153
-0.0682537440053351 -0.00572882981369072 0.00416791218212843 0.008565667 -0.1777597 0.9840366 189 171 134
-0.0615378216197532 0.00198036297517756 0.00517346501435849 0.03623014 -0.1793493 0.9831181 196 177 152
-0.058726118077349 0.00218484292859111 0.00515280543516217 0.04155251 -0.1790496 0.9829622 190 172 143
-0.0486243142220278 0.00365195701781473 0.00520369862839222 0.04942006 -0.1725391 0.9837621 198 181 159
-0.0897963608569349 -0.0149288334317387 0.0024562060480908 0.0973827 -0.1681971 0.9809314 191 174 142
-0.0940034188618158 -0.0128507480734118 0.00359420379842916 0.1272276 -0.166167 0.9778556 198 182 153
-0.0898380673686844 -0.00728740405739459 0.00388136956836668 0.08406854 -0.1804156 0.9799912 192 175 139
-0.0942243269564825 -0.00689589915525668 0.0048393691617372 0.1314662 -0.1685198 0.9768919 198 183 155
-0.0799991906598506 -0.0033362999550276 0.00439707230011573 -0.001172731 -0.1867773 0.9824015 193 177 152
-0.0779336513665086 -0.0014949109061535 0.00462995277784158 -0.003720511 -0.1919472 0.9813982 194 177 150
-0.0695889776091706 -0.00377677051780423 0.00455103188207966 0.006514291 -0.1781831 0.9839758 191 173 138
-0.0705442537063764 -0.00130089634316366 0.0049731667064843 0.00618227 -0.181992 0.9832806 194 176 149
-0.0670820645324476 0.00339294309428306 0.00573584002306933 0.01916131 -0.1883068 0.9819233 193 174 144
-0.0625680825198113 0.00796558332200592 0.00652389030018212 0.04045821 -0.1813942 0.9825779 195 179 142
-0.0595559343432327 0.0109221897998188 0.00681375252528206 0.04340629 -0.1774755 0.9831675 191 175 140
-0.0972757679479118 -0.0043907538591258 0.00560462594431534 0.1419175 -0.1728379 0.9746725 200 185 162
-0.0883440089917827 -0.00100616536698583 0.00505473350492999 0.06786409 -0.1791088 0.9814858 195 178 157
-0.0775264124308835 0.0044877718989299 0.00583352192450168 -0.003230783 -0.1972488 0.9803481 192 175 145
-0.0969107725352224 0.000211179584862498 0.00680114630447075 0.1372833 -0.1779035 0.9744248 202 186 168
-0.103241544435786 0.00166007021084336 0.00775209506912969 0.138011 -0.190273 0.9719821 195 179 159
-0.105137521762093 0.00807225737806094 0.00929108274572953 0.1499134 -0.2020306 0.9678376 191 176 148
-0.0992003620996572 0.0118373324032632 0.00910901897500928 0.161468 -0.18809 0.968788 198 182 157
-0.0915899389585394 0.00680473875937404 0.00647070770104989 0.09532211 -0.1803351 0.9789755 196 180 156
-0.087628446773529 0.0100120250012156 0.00721202667748021 0.04583011 -0.1877917 0.9811391 194 178 146
-0.0879214423993117 0.0160036616449347 0.00814815516233305 0.06773059 -0.1948661 0.9784885 190 173 135
-0.0971570335856865 0.0142449315014943 0.00852466625878269 0.1515499 -0.1861684 0.9707595 198 183 164
-0.0904540344177255 0.0168408435000469 0.00847160415052797 0.09169632 -0.1933332 0.9768388 191 176 142
-0.092153665967076 0.0199151759789868 0.00917454622059989 0.1158266 -0.1799734 0.9768285 196 180 153
-0.0733392788703299 0.00979484143247689 0.00719961031602537 0.01070159 -0.1951731 0.9807104 190 173 138
-0.072803355529354 0.012459545100175 0.00779424813613717 0.01199363 -0.1898345 0.9817429 191 172 139
-0.0617471203542911 0.0126944481709502 0.00721779505657701 0.04606872 -0.1830516 0.9820233 200 181 164
-0.0570940896599189 0.015148385501346 0.00759277609107081 0.05073065 -0.1789148 0.9825558 193 176 145
-0.060521164124952 0.0219942566398635 0.00857551146233632 0.05091843 -0.1799447 0.982358 194 175 151
-0.0827272185441502 0.0141582874083769 0.00791634299047782 -0.00615399 -0.1931759 0.9811448 195 178 156
-0.0770990359319451 0.0178029627751747 0.00869006225102642 -0.001506563 -0.1908506 0.9816179 192 175 143
-0.0851436454604589 0.0184357619909167 0.0087870149809721 0.03129688 -0.1889086 0.9814958 192 176 141
-0.0270965951828163 0.0124625736465508 0.00554456218814139 0.03919917 -0.1530368 0.9874427 201 185 165
-0.0629576938897244 0.0259837280623362 0.00995681773730668 0.05154949 -0.1793264 0.9824381 195 178 147
-0.084623931533773 0.0208621931087832 0.00908995221218041 0.02456639 -0.1907072 0.9813395 192 176 148
-0.080290420843467 0.0268701568839832 0.0103236011413969 0.003334457 -0.1896133 0.9818532 190 172 137
-0.0725193732186741 0.0304469789985491 0.0110700283859777 0.02259838 -0.1797459 0.9834535 190 172 136
-0.0707509996610814 0.0319688224675041 0.0112197412324449 0.03238973 -0.1794875 0.9832269 190 170 134
-0.0290195743387264 -0.00676140732180097 0.00230233687448275 0.01790857 -0.1713173 0.9850531 201 184 169
-0.0331939388131764 -0.0010482920920365 0.0034549295451925 0.03421657 -0.1806437 0.9829533 198 182 158
-0.0281703707270023 -0.00193554878403746 0.0030633689485107 0.02078296 -0.171757 0.9849201 196 179 158
-0.0235100694971996 -0.000402510984504278 0.00285928363039918 0.01931 -0.1660901 0.9859215 198 182 162
-0.0231653603602086 0.0063278119454464 0.00447729962285313 0.02725506 -0.1626599 0.9863057 200 185 168
-0.0373983259119682 -0.0014130151412266 0.00353573995561546 0.0413206 -0.1823336 0.9823681 195 179 158
-0.0392465774154324 0.00468337665934759 0.00462948034922685 0.04496304 -0.1675787 0.9848328 196 180 159
-0.0368256688010292 0.00660270102881744 0.00490416304218645 0.0420124 -0.1663012 0.9851796 196 180 157
-0.0476400463613401 0.00737418311060078 0.0056247002205651 0.05443382 -0.1717823 0.9836299 195 179 150
-0.0416377211519566 0.0128620546455136 0.00603201320893572 0.05572959 -0.1681518 0.9841845 199 183 163
-0.0329254298047569 0.010883802372507 0.00563253353890729 0.03022055 -0.165024 0.9858264 201 185 167
-0.0350482558829089 0.0165032756297989 0.00642800564464682 0.05104472 -0.1572398 0.9862404 197 181 157
-0.0335246028625208 0.0186505764831032 0.00682629458488908 0.050419 -0.1564453 0.9863989 200 183 162
-0.00882030344560081 0.00282203890750132 0.00334370883139083 0.03309274 -0.1524049 0.9877639 201 186 171
-0.0155795939591764 0.00190615638747993 0.00365613637046935 0.0217638 -0.1553765 0.9876155 202 187 171
-0.00965095220896217 0.0073832663577228 0.00426553099942271 0.02649553 -0.1453269 0.9890289 203 189 174
0.0260650554754068 0.0485934850358569 0.00333125844524221 -0.1159105 -0.118579 0.986156 203 188 172
0.00113266189820338 0.0156226687729564 0.00511230814735748 0.03300609 -0.1214214 0.9920521 203 188 172
0.00158257151228003 0.0168797172847822 0.00525094334911205 0.09617586 -0.1190849 0.988215 203 188 173
-0.00233430046400118 0.0217516601420988 0.00594110697701103 0.01024677 -0.1240634 0.9922214 204 188 173
-0.0168229812666004 0.0123611449483074 0.00536757510052555 0.03302464 -0.1395974 0.9896575 203 186 171
-0.00827309895138539 0.0178491320820194 0.00556165641694896 0.02692941 -0.1297707 0.9911783 205 189 175
-0.0160045157853267 0.0188882594576297 0.006094196072167 0.03650726 -0.1323241 0.9905339 203 187 169
-0.0231400126807159 0.0214868583284413 0.00654746025118612 0.04805672 -0.135427 0.9896212 203 188 171
-0.0259872937948639 0.0241409143023235 0.00696396811358417 0.06002901 -0.146354 0.9874092 202 187 170
-0.0222563092800688 0.0277513681053749 0.00736850557642922 0.05516388 -0.1398053 0.9886412 203 188 174
-0.00657786537487592 0.0220331812646166 0.00580751615611685 0.02528039 -0.1217793 0.9922352 204 187 172
-0.014455906152489 0.0234349770780623 0.00642866534323848 0.03579228 -0.1313442 0.9906905 204 188 172
-0.0119176304410865 0.0286428539840728 0.00700798420354357 0.03875703 -0.1328603 0.9903767 204 188 171
-0.0125663405195141 0.0340270260718815 0.00776010886192527 0.04113659 -0.1320654 0.990387 205 190 176
-0.0512037534367674 0.0137246861422802 0.00688222189949039 0.05617126 -0.1685929 0.984084 196 179 154
-0.0427328637466823 0.0150351371183209 0.00646951171764003 0.05676352 -0.1672874 0.9842727 200 182 161
-0.0405030895081017 0.0211448374430208 0.00734041470115511 0.06130824 -0.1660904 0.9842029 197 180 156
-0.0365153653383518 0.0245563980948483 0.00788134883198359 0.06215543 -0.1590729 0.9853083 198 181 160
-0.0143669113982551 0.0347815668899408 0.00822541921480548 0.04178744 -0.1321411 0.9903497 205 190 176
-0.0562415853272805 0.0216311340563585 0.00857897624664657 0.0596044 -0.1806692 0.9817362 195 178 146
-0.0505214365117045 0.0273397158479614 0.00933589644191268 0.06654507 -0.1698336 0.9832234 195 178 151
-0.0462087594626764 0.0279534287755445 0.00924530394292311 0.06417377 -0.1649607 0.9842102 193 176 147
-0.0418651211236344 0.0327660394886922 0.00926860189837601 0.06551696 -0.159614 0.985003 200 185 164
-0.0585242486203704 0.0297684489297455 0.0103592877653923 0.05798362 -0.1703155 0.9836822 196 178 150
-0.0482130087006017 0.0360741074769595 0.0105255295567814 0.06855594 -0.1591901 0.9848648 197 180 155
-0.0454867942578449 0.0369847640385103 0.0105256988891316 0.07020108 -0.1591468 0.9847559 197 180 151
-0.0583102882250618 0.0343384413110596 0.0109953747571623 0.0622889 -0.1684113 0.9837468 198 181 156
-0.0622793446264379 0.0377511779150003 0.0117541752624328 0.06341602 -0.1711791 0.9831969 199 181 160
-0.0583923461122243 0.0396167203299728 0.0119067916664583 0.06647152 -0.1757007 0.9821969 197 180 157
-0.057946570034571 0.04366479565702 0.0125362059633505 0.07269908 -0.173532 0.9821413 196 179 153
-0.043171090996117 0.042681526832015 0.0108559790288343 0.07163905 -0.1580195 0.9848338 202 185 162
-0.0496981247943317 0.0433730988878699 0.0119047016038824 0.07548842 -0.1679148 0.982907 196 179 154
-0.0556225776705094 0.0455853551105169 0.0125427343067602 0.07391964 -0.1730578 0.9821339 197 179 151
-0.0336419505780624 0.0286933698525311 0.00835414123341313 0.06794398 -0.1521745 0.9860155 203 187 169
-0.0241750442909653 0.0321567387763757 0.00805792027248071 0.06529949 -0.1417161 0.9877512 203 187 173
-0.0355396106226756 0.0318758083145216 0.00902727782666722 0.07022157 -0.1558814 0.9852766 200 185 168
-0.0287905035186872 0.0366647969839112 0.00931154042247813 0.06964411 -0.1405937 0.9876149 204 187 171
-0.0337328032415597 0.0407253819358714 0.0102218383924696 0.07931612 -0.1415447 0.9867492 203 188 173
-0.0187984137100884 0.0377755574816629 0.00863777886131434 0.05789845 -0.1300261 0.9898186 205 190 178
-0.018519565447659 0.0397471557120044 0.00883972614932053 0.05746731 -0.1279516 0.9901141 205 190 177
-0.0200049324736972 0.0422206880897118 0.0093189146702109 0.05971186 -0.1254724 0.9902985 204 189 176
-0.0255595516885531 0.0446906930381801 0.00971990283307818 0.07711884 -0.124785 0.9891822 205 190 176
-0.0191063550650173 0.0498085103182647 0.0101997909178137 0.05616967 -0.1272153 0.9902834 205 190 177
-0.0338465250989067 0.0443139457507752 0.0110773367701413 0.08324217 -0.1545444 0.9844729 202 187 170
-0.03940056943619 0.0490739494628676 0.0117414200645188 0.09059761 -0.161093 0.9827722 200 185 167
-0.0437710043484635 0.0471154197000934 0.0119285421563365 0.07981639 -0.1674789 0.9826394 201 184 164
-0.0467820856769349 0.0530345890214605 0.0133703965243769 0.0861155 -0.1664266 0.9822863 194 178 150
-0.0366751327507858 0.056771252189632 0.0128668987538335 0.106843 -0.1511897 0.9827137 203 188 174
-0.0239599502142777 0.0507830795411665 0.0104877888510496 0.09978587 -0.1337126 0.9859836 206 191 177
-0.0277579946102128 0.0543097761180185 0.0113845904750699 0.101963 -0.1314438 0.986066 205 189 173
-0.0247054799823264 0.060280668421227 0.0119073027934643 0.09780057 -0.140513 0.9852366 205 189 174
-0.0270043767077978 0.0645110947158892 0.0126742824893635 0.1008364 -0.1487709 0.983717 203 188 172
0.0131221920390269 0.0104352575476414 -0.000747668204714336 0.4164135 -0.1663758 0.8938227 192 174 135
0.0133025792020834 0.0163562706420705 -0.00317278311855324 0.5263147 -0.05654136 0.8484079 200 183 155
0.0272882650745289 0.0179577591149036 -0.000616617139565526 -0.1684637 -0.133535 0.9766209 201 185 166
0.0228298159159211 0.0202489271272324 -0.000991216257223593 0.1113883 -0.1456194 0.9830502 203 187 168
0.0211465861511847 0.0227710171130843 -0.000932846636205992 0.1294249 -0.01345252 0.991498 203 186 167
0.0376348903273301 0.0254668839891966 0.00221116570086231 -0.1482757 -0.1190958 0.9817487 201 186 169
0.0396613826408551 0.0262412109714331 0.00266448345878594 -0.1405344 -0.1167991 0.9831623 200 184 167
0.0500894754607052 0.0313797690774763 0.00431076559382791 0.000110181 -0.1246681 0.9921985 205 190 173
0.056834444295505 0.0340107992769723 -0.00564947216742608 0.8088999 0.05234044 0.585612 196 178 149
0.0638546503249356 0.0370289749376511 -0.00464768373254111 0.8269871 -0.1366783 0.5453542 212 196 181
0.0746044844600252 0.0387848530480113 -0.00399686240903389 0.07425277 -0.09975631 0.9922374 213 198 184
0.057782083836975 0.0390441421802368 -0.00463527229038006 0.8362283 -0.1824485 0.5171409 196 180 150
0.0508874126564457 0.0319609047029417 0.00427440212501001 0.0668388 -0.0596995 0.9959762 202 187 170
0.0566852743687586 0.0346048139480079 0.00540690287843107 0.2559639 0.006901044 0.9666617 202 187 171
0.0543206451871744 0.0394783148905538 0.00579842435731974 0.2799385 -0.06635295 0.9577222 202 186 169
0.0636991890660935 0.0428988688629991 -0.00358377025171368 0.6899164 -0.1252189 0.7129766 214 198 183
0.0710314861735325 0.0468586332358484 -0.00306099356928949 0.06559819 -0.06558987 0.9956881 214 198 186
0.0611637253320078 0.0428652434005883 0.00478788192259488 0.7539473 -0.04913977 0.6550945 184 165 121
0.0569601993653949 0.0461182350507879 -0.00423302726017344 0.6761571 -0.2480539 0.6937441 198 180 155
0.0592311414611383 0.0525468056753277 -0.00221937127436764 0.6771134 -0.1014567 0.7288511 204 186 165
0.0632410756683174 0.0570531185125012 -0.00176599600861987 0.3825191 -0.1471627 0.9121525 216 200 186
0.0782809637053873 0.0401522413391929 -0.00375538299134165 -0.02456518 -0.1293377 0.9912963 215 200 188
0.0843124359481963 0.0444114873084546 -0.00296823529420324 -0.03882365 -0.1286299 0.9909324 210 194 185
0.0896800473616873 0.0489948965152331 -0.00234844202050276 -0.05184289 -0.1340094 0.9896231 211 195 184
0.0923126756180793 0.051853858353678 -0.00152332793951367 -0.05741704 -0.1473 0.9874239 211 196 184
0.0851034076798308 0.051228688243665 -0.00237731689039648 -0.0452107 -0.1365272 0.9896041 212 198 185
0.0778840845534007 0.0484203597479297 -0.00270188846224523 -0.0223271 -0.1293767 0.9913441 202 189 176
0.0785010394771434 0.0525617227968879 -0.00197299856315052 -0.02345492 -0.1334042 0.9907841 212 197 187
0.0814649738074701 0.0545355556376464 -0.00184208690071799 -0.0299652 -0.1339257 0.9905382 212 197 186
0.0689503555190675 0.106409205423744 0.0046324715675868 0.1553454 -0.1600252 0.9748127 217 201 189
0.07873151628484 0.0580899351636986 -0.00124939475623631 -0.03182899 -0.1374466 0.9899976 212 196 184
0.0709481136586668 0.0581392316488333 -0.00139775388032352 0.04544999 -0.1459284 0.9882506 215 199 188
0.0750935884458616 0.0589154427102595 -0.00139525770239142 -0.02639484 -0.1351508 0.9904734 214 198 187
0.0731370839500881 0.0624326921005828 -0.00105084028914151 -0.02726507 -0.1389122 0.9899293 208 193 181
0.0806124614186426 0.06036927647233 -0.00115649701602065 -0.03581323 -0.1436046 0.9889869 205 191 181
0.0803085901007224 0.0653535665000802 -0.00037859078524341 -0.03824618 -0.1373691 0.9897813 215 199 187
0.0788741492915438 0.066571388335901 -0.000332617930635812 -0.03462606 -0.1385104 0.9897555 215 199 187
0.00910971153347251 0.0127742427202463 0.00464166854528958 0.3265716 -0.1733132 0.9291467 200 185 168
0.0110949594504638 0.0187498271785395 0.00566065091174471 0.3970937 0.0001843195 0.9177781 200 185 166
0.0120264776245284 0.0217912658249003 0.000536545651609516 0.4228168 0.02423878 0.9058909 195 178 142
0.0126888180941859 0.0213780713026096 0.00591021814222922 0.4468517 -0.01943672 0.8943969 194 176 136
0.00155833158462026 0.0231907737775185 0.00592835208025438 0.1038472 -0.07737779 0.9915788 203 187 171
0.0148611853126334 0.0231776682073862 -0.00172024048017233 0.381639 0.00861144 0.9242713 204 187 163
0.0124036247241482 0.0256323771463822 0.00288851353296318 0.4824759 -0.06139809 0.8737547 202 185 159
0.0162043602330492 0.0270728514790357 -0.00105220687153838 0.2796549 -0.09574185 0.9553149 205 187 165
0.0117830378816998 0.0293235514503208 0.00261852854881602 0.4702086 -0.05155804 0.881048 202 185 154
0.0162376599517166 0.036552593414193 0.00042506763665616 0.2001853 -0.157387 0.9670342 206 189 167
0.00558418305005171 0.0270808331382086 0.006483276934135 0.1786052 -0.07715074 0.9808914 202 186 170
-0.00405699773342605 0.0312585233790525 0.00707744647613257 0.02521205 -0.1233147 0.9920473 204 189 172
0.0021660847577486 0.0334991033397116 0.00747495109622444 0.09279379 -0.1164633 0.9888507 205 189 176
-0.00447113431002022 0.0353318746120295 0.00763930521636959 0.03178918 -0.1257703 0.9915499 206 191 176
-0.000259806050945444 0.037540034179948 0.00753153748706367 0.07836486 -0.08287811 0.9934738 206 190 177
0.00578156935787877 0.0370333775213274 0.00777586583152233 0.2744481 -0.1349478 0.9520858 202 186 170
0.0113852581745734 0.042817346325096 0.0051277601172481 0.414291 -0.1378625 0.8996426 201 185 156
0.00386142053913596 0.0431946863980487 0.00846290118907038 0.2115426 -0.1361407 0.9678406 205 189 175
0.0112078176651623 0.0461713893856347 0.00791044913378913 0.4336934 -0.06713551 0.8985559 203 187 164
0.0278059052989444 0.0327832152041262 0.00158105805220529 -0.1447059 -0.1399286 0.9795306 202 187 172
0.0421322734014739 0.0339677827477147 0.00393957793791443 -0.1231077 -0.1199123 0.9851221 201 186 170
0.0396347191576857 0.0337980326624131 0.00331291371460224 -0.1251022 -0.12162 0.9846613 202 186 171
0.0419882989041448 0.037327354637154 0.00383796965108853 -0.1155159 -0.120319 0.9859916 201 186 170
0.0265362694498935 0.0366855747308457 0.00201250117181412 -0.1324965 -0.1383302 0.9814833 203 186 169
0.0201459827242662 0.0404877347257582 0.00166915820998932 0.2136897 -0.05545013 0.9753266 203 186 166
0.0201140066317004 0.0447992053279026 0.00205549048506341 0.1233977 -0.1460443 0.9815519 205 189 170
0.03391913150101 0.0423129049761357 0.00386165384430176 -0.1324636 -0.1200129 0.9838955 204 189 173
0.0365070017494901 0.0463998626186954 0.00461148283770106 -0.1320034 -0.1181926 0.9841776 200 184 167
0.0285249390571972 0.0500698553396807 0.00376871743441244 -0.1205043 -0.1188147 0.9855769 203 188 172
0.0240601383886031 0.0504944347271691 0.00365974230429411 -0.1152196 -0.1205774 0.9859947 203 189 172
0.0331636733601858 0.0559567074768131 0.00508278043857702 -0.1340362 -0.1249259 0.9830706 203 188 170
0.0108820839682177 0.0449645382419378 0.00372928446846046 0.4450678 -0.09542837 0.8903977 204 186 163
0.0219975864994345 0.0517945320446009 0.00323456811354213 0.01254696 -0.1465096 0.9891297 205 189 174
0.011062530099715 0.0522799075937647 0.00890704556654336 0.3700979 -0.07602257 0.925877 206 190 171
0.0118162867020243 0.0576518287051689 0.00319211337523304 0.3650776 -0.06582756 0.9286469 211 194 172
0.0160033168723376 0.0589409661861108 0.00364479031921104 0.3040743 -0.09666294 0.9477316 209 192 174
0.114043479327384 0.124588997917237 0.00658424831017783 0.04694306 -0.07510787 0.9960698 191 171 150
0.0306193737977195 0.0597340833146449 0.00522109169722691 -0.1198119 -0.140806 0.9827608 204 187 171
0.0228471070368265 0.0604474028884618 0.00457326137674362 -0.1025859 -0.1390342 0.9849597 206 191 175
0.0224280308249795 0.065299198847904 0.00510821047950176 -0.03998283 -0.1161237 0.9924297 204 189 172
-0.0134891292584088 0.0426694803567098 0.00887976405549053 0.0487246 -0.1247938 0.9909856 207 192 178
-0.00936318176577677 0.0475428047862259 0.00931115158092481 0.04014579 -0.1304458 0.9906423 203 189 174
-0.0135919178915987 0.0477618217278446 0.00942968253520515 0.04199 -0.1246387 0.9913133 205 190 176
-0.00757462226172889 0.0538575302956862 0.0101686562030526 0.02925029 -0.142999 0.9892905 204 189 174
0.00470597078098611 0.0528181980172507 0.00985056573322861 0.272055 -0.1318888 0.9532006 204 189 175
0.00447761533080182 0.0554197609384073 0.0102337204212241 0.271952 -0.1225375 0.9544772 203 187 172
-0.000281781450804819 0.0594621715687894 0.0110861123755964 0.1647153 -0.1147449 0.9796441 204 188 172
-0.00900932212001015 0.0570720443600881 0.0105663649123691 0.02708091 -0.1479839 0.9886189 205 190 173
-0.00116952980990315 0.0617185345130248 0.0114059209443216 0.1319355 -0.1155728 0.9844978 204 188 172
-0.0210429183196236 0.0564511111147781 0.01089578158728 0.07522159 -0.1401823 0.9872642 207 191 178
-0.0172725932484595 0.0622389258355459 0.0118721776052484 0.05017527 -0.150763 0.9872958 203 187 171
-0.0212773779595811 0.0639919330699816 0.0122197964106279 0.06847676 -0.1493991 0.986403 204 189 174
-0.0248915932553243 0.0657500043601226 0.0126972645170459 0.09596899 -0.1443512 0.9848617 205 189 175
-0.0206770250872507 0.0686533326261349 0.0128368458060486 0.062388 -0.1514608 0.9864925 205 190 176
-0.00301499086209056 0.0647704079675123 0.0119564672559248 0.04149198 -0.1445974 0.9886203 206 190 173
-0.0126507249196727 0.0679310681103465 0.0126339196403341 0.03203114 -0.150702 0.9880602 205 189 171
-0.0144710806230216 0.0711442305176581 0.0130017519979177 0.04141299 -0.1393985 0.98937 207 191 175
-0.0106844994254157 0.0737529484224507 0.0130240534829277 0.03015986 -0.1380567 0.989965 203 188 172
0.0109523750620991 0.0570633796563226 0.00864811790599655 0.3982589 -0.1041163 0.911345 206 190 166
0.0798214147306892 0.0855187710657307 0.00240385021595013 -0.0294798 -0.1207183 0.992249 216 201 189
0.00508085861691743 0.0609174159489282 0.0109728303090836 0.3112499 -0.1079511 0.9441769 205 189 174
0.0249278908404394 0.0695886092337918 0.00642729328109852 -0.108395 -0.1224394 0.9865389 206 190 176
0.010870182696228 0.0690397993851395 0.00497547239761943 0.3753607 -0.1331695 0.9172624 211 194 173
0.0104325437932079 0.0675080220009262 0.00998262217262287 0.406398 -0.1355764 0.9035816 206 190 168
0.0105758013615848 0.0707745624619889 0.01066626708615 0.430855 -0.129952 0.8930154 207 190 169
0.0170710005803806 0.0682334606887892 0.00496544475290239 0.2470746 -0.1728507 0.9534552 209 192 174
0.0190329275214721 0.0713803920249106 0.00570159395674087 0.0879022 -0.1628924 0.9827203 208 192 176
0.0206008676220998 0.0743313022730651 0.00604687090205369 0.1189662 -0.1202171 0.9855937 208 192 177
0.0168590250646513 0.0764728951308674 0.00579398878896061 0.1836402 -0.09079462 0.9787914 210 194 176
0.0123021672627209 0.0781784294930227 0.00603354767337469 0.4337857 -0.1556313 0.8874733 214 196 177
0.0199533258630961 0.0826984563918315 0.00697871804542122 0.1512177 -0.105607 0.982843 209 193 178
0.00937870171154065 0.0747697240201924 0.0126446999085463 0.4741164 -0.07009229 0.8776678 211 195 179
0.00372843586859817 0.0757650261228812 0.0133050186947667 0.23774 -0.2214042 0.9457589 209 194 179
-0.00487783826811861 0.077586566755467 0.0138912006609466 0.03509551 -0.1193322 0.9922339 206 190 176
0.00970311286593872 0.0830890679403117 0.0134234979582337 0.4449705 -0.09706197 0.8902698 213 197 181
0.0508022867825243 0.0411234597129562 0.00538817266048348 0.1729779 0.01086161 0.9848658 202 186 168
0.0544832366835258 0.0428088065001185 0.00604475728501998 0.3789715 -0.1423008 0.914402 203 188 171
0.0582872530978039 0.0430363097809801 0.00665835444427594 0.6354879 -0.0184373 0.7718906 201 186 169
0.0554054337771118 0.0473298070414322 0.0067408606279636 0.4104169 -0.08653896 0.9077824 202 188 173
0.0609704461826656 0.0537666130296292 0.00651673174047417 0.620191 -0.09518458 0.7786546 204 189 168
0.0418798055588926 0.0471142089094653 0.00536299667213172 -0.1240923 -0.1168196 0.9853702 200 185 167
0.037762120207819 0.0534596045978026 0.00540239624137423 -0.1352353 -0.1198397 0.9835395 203 188 171
0.059459247372838 0.0603535295731081 -0.00113449938366865 0.5659029 -0.09775407 0.8186563 205 188 166
0.054980562681857 0.05412150307028 0.0077090302643074 0.2899778 -0.1485038 0.9454414 203 188 172
0.0612204108638047 0.0604892765676956 0.00688352512450494 0.5671595 -0.197507 0.7995756 205 189 168
0.0505953278034935 0.059253545986961 0.00782353813490994 0.09944381 -0.07299682 0.992362 206 191 176
0.0468913406969723 0.0593005529703889 0.00723636605088694 -0.09586636 -0.1232194 0.9877381 205 190 176
0.0489435656690936 0.0605569510385774 0.00796085611638216 0.06782419 -0.1046826 0.9921902 205 190 176
0.0568847285690944 0.0660191821745129 0.0096790059993852 0.4549358 -0.1351058 0.8802158 204 189 174
0.0653582691863582 0.0667839002176026 -0.00053140558741202 0.2896584 -0.06371246 0.9550072 217 200 186
0.0694449096875122 0.0687872665685866 -0.000122740029715879 0.1237816 -0.09020517 0.988201 215 199 186
0.06054608963829 0.0670595133602409 0.00818475447023374 0.6104926 -0.215306 0.7621955 206 191 170
0.0733374510608419 0.0706037019348646 0.000106168741134643 -0.02575217 -0.1420541 0.9895239 215 199 186
0.0778912363915983 0.074269499306352 0.00114943189593393 -0.03473828 -0.1406717 0.9894467 217 201 188
0.0594653786901443 0.0731721009145596 0.0105829188932913 0.5582273 -0.1353608 0.8185718 207 191 174
0.040804589131512 0.0622675594541273 0.00720116148414074 -0.1274597 -0.1309864 0.9831564 201 186 170
0.0333902389519859 0.065921130894107 0.00664407588786255 -0.1200215 -0.1435473 0.9823385 204 189 175
0.0417867485462516 0.0678302364491449 0.00809768562538822 -0.109924 -0.1149071 0.9872756 205 191 175
0.0352474520655667 0.0716380370431079 0.00758715961830202 -0.1140292 -0.1141968 0.9868923 204 188 173
0.0329311240146438 0.0732587133196362 0.00733359854814357 -0.1210027 -0.1125189 0.9862545 206 190 176
0.043184999590847 0.0712893695911018 0.00863493595430366 -0.1016661 -0.1018458 0.9895915 207 191 176
0.0491470181536061 0.0736485367829829 0.00926483909993009 -0.04322485 -0.09979154 0.994069 209 194 181
0.0469624954329267 0.0751876529840826 0.00907537177881491 -0.1047732 -0.08555465 0.9908093 207 192 178
0.0481982983189763 0.0770758377552091 0.00933571287875132 -0.09462104 -0.0695227 0.9930828 209 192 179
0.0607957822121711 0.0687071483037229 -0.000178617391376465 0.6938465 -0.1365221 0.7070635 210 192 175
0.0603536362428526 0.0715966284078011 0.00447228135901016 0.6321715 -0.09540671 0.7689322 208 192 171
0.0625085328941067 0.0790986818003191 0.00126798281433387 0.6653848 -0.1031713 0.7393367 219 202 188
0.0801550128834484 0.0787993167577329 0.00153170094897485 -0.035482 -0.1402166 0.9894849 216 200 189
0.0777699650210074 0.0801442163435656 0.00175068201142078 -0.02973112 -0.1379281 0.9899959 217 201 189
0.0701849969992246 0.08110224464794 0.00194265014197083 0.1341084 -0.1992089 0.9707372 219 202 191
0.0742999211245546 0.0863105190120562 0.00261639543805094 -0.02624104 -0.1206646 0.9923465 218 202 192
0.0605679657148753 0.0763028708397825 0.0102705773222962 0.5986463 -0.06514464 0.79836 208 193 175
0.0574878164304854 0.074708638307461 0.0104575757596732 0.4691034 -0.1617724 0.8682002 206 190 175
0.0498831436924857 0.0833068289356854 0.0100030731423877 0.0363253 0.008617841 0.9993029 206 191 176
0.0603325514078258 0.0848409448988156 0.0104458830247337 0.4363062 0.02802296 0.8993618 207 191 173
0.0624401374388065 0.0855442740998024 0.00231986196113289 0.4120021 -0.1682086 0.8955223 219 202 188
0.0702996447088128 0.0894777829479968 0.0028713548675974 0.08572986 -0.1419517 0.9861542 220 204 193
0.0600364618999757 0.0899839907362195 0.00712883298729083 0.43941 -0.061799 0.8961583 208 192 174
0.0603228668499066 0.0954384071342343 0.00597477543942351 0.4847035 -0.07558504 0.8714066 204 188 169
0.0649817925253718 0.100153394687791 0.00405872863714585 0.2527965 -0.09011495 0.9633136 219 204 191
0.0441655562983508 0.0816797386727467 0.00960241953749261 -0.09740157 -0.08091215 0.9919507 208 192 177
0.0253480021821896 0.0768551592787411 0.00721798466659351 -0.07351921 -0.1146074 0.9906867 208 193 179
0.03611518494132 0.0802572255712483 0.00850228989019146 -0.1014778 -0.08645613 0.991074 208 192 178
0.0261652556705755 0.0824295538835297 0.00768251895631614 -0.1042459 -0.09720615 0.9897898 206 190 176
0.0302416665277642 0.0859595732253479 0.00846472569851328 -0.1054078 -0.09264503 0.9901041 208 192 178
0.0377042608200878 0.0798366803661538 0.00866761948418142 -0.1015373 -0.08518831 0.9911776 206 191 177
0.0457193732328477 0.0860088601115258 0.00986255902962556 -0.07533569 -0.07586967 0.9942678 207 191 175
0.0363385036226894 0.0901465974173287 0.00944373044163728 -0.09823564 -0.08830289 0.9912378 206 189 174
0.0573790764867453 0.087192412126296 0.0113926120513199 0.3501765 -0.0221809 0.9364211 206 191 176
0.0488222744582253 0.0912480605469185 0.0106073807549183 0.0933802 -0.06638094 0.9934152 206 191 177
0.0478901759261537 0.0927923808881773 0.0104829502263845 0.09698285 -0.08695754 0.9914801 206 191 176
0.0422698051680829 0.0973117381554348 0.0107159092871192 -0.09256355 -0.09910911 0.990762 208 192 177
0.0507476089528301 0.101562392351291 0.0118679273013797 0.1862151 -0.13498 0.9731929 208 192 178
0.0602374912271689 0.0968461679993095 0.00898257077974159 0.4572295 -0.02435152 0.8890153 208 192 173
0.0523527989294171 0.100928089363278 0.0117743672280644 0.2091782 -0.1313447 0.9690166 207 192 177
0.0599360315045206 0.107069489484086 0.0119246314818837 0.5290272 -0.1685229 0.8317032 204 189 166
-0.00865589269948919 0.0777154726738362 0.0136959252614053 0.0353924 -0.1214995 0.9919603 209 193 178
0.0116910431390881 0.0844454975976491 0.00647203178714668 0.4324003 -0.0880248 0.8973749 214 196 175
0.000111147130482325 0.0833953911999482 0.0139403074678691 0.1556102 -0.1046905 0.9822552 212 196 182
0.00992019525549004 0.0849286755420869 0.0121418780473161 0.4608526 -0.1027468 0.8815089 209 191 170
0.00791823460048879 0.0894538330949654 0.014059410541637 0.4474515 -0.1104726 0.8874587 211 196 179
0.00965896901943697 0.0946792290475659 0.0116228381619927 0.4846884 0.0001216999 0.8746869 207 190 167
0.0201015857676657 0.0869431159559749 0.00767255481463051 0.1180266 -0.107861 0.9871351 208 192 175
0.0127244285179898 0.162598832721688 0.0160144465470784 0.170086 -0.09926736 0.9804166 210 191 172
0.0385944989256503 0.0997692476191049 0.0105546208648587 -0.09020566 -0.102776 0.9906059 204 189 174
0.0152752224699463 0.0938796581791056 0.00774845869707304 0.2369058 -0.03560934 0.9708798 212 195 178
0.0163328252304721 0.0985624432084743 0.00854348098172715 0.1667242 -0.05023121 0.9847233 211 194 179
0.0185656751651274 0.10113949177818 0.00893895640103115 0.07312975 -0.1267817 0.9892312 210 195 180
0.0362137100780829 0.0998021373120314 0.010240833583833 -0.08943103 -0.1037757 0.9905719 204 189 172
0.0284202650620492 0.104060851327766 0.0100568400853277 -0.08636621 -0.1083327 0.990356 204 188 173
0.0292759814143143 0.108100888255035 0.0105696921977975 -0.08947605 -0.1064767 0.9902812 203 187 170
0.00867461971639016 0.104697094463037 0.00916827823158485 0.38683 -0.06719785 0.9196994 207 190 167
0.0188970324590531 0.106416101012903 0.00938941090822056 0.020023 -0.1275977 0.9916239 210 193 179
0.0244496846452494 0.108559075017411 0.0103150664178432 -0.07811066 -0.1154237 0.9902404 205 190 174
0.027030718691193 0.112955730993054 0.0112006418947978 -0.07732395 -0.1144328 0.9904172 205 189 172
0.040354722750377 0.0986143339518203 0.0106191321432219 -0.0917782 -0.1009897 0.9906452 206 190 174
0.0594878282125223 0.10218658854218 0.00425993096561926 0.4564032 -0.1017233 0.8839391 209 193 175
0.0603434625063918 0.10650026998631 0.00727069409715499 0.4970928 -0.1467332 0.8552006 203 187 163
-0.018011547217693 0.207999770738855 0.0260852802776893 0.05785882 0.4876859 0.8710998 189 166 130
0.0407982839894377 0.103556247518884 0.0111949638466915 -0.08619414 -0.101321 0.9911128 206 191 176
0.044854622822366 0.107605174775917 0.0117528587931868 -0.05397294 -0.1015792 0.9933622 206 190 174
0.037372296751302 0.110374423318958 0.0113910141107494 -0.08017742 -0.09597703 0.9921492 204 188 170
0.0352089326591364 0.11123992751807 0.0114620595195304 -0.08524515 -0.09916712 0.9914127 203 188 168
0.100293935522622 0.158360489611323 0.0109648122605021 -0.0532065 -0.09358259 0.9941888 210 193 179
0.0570063145497176 0.111281652207259 0.01303324274709 0.3961363 -0.1568099 0.9047026 205 189 172
0.047294286855604 0.115134764766477 0.0127108892278327 -0.01919211 -0.1128698 0.9934244 204 188 172
0.0515758487289041 0.120822205051952 0.0135488724530238 0.08427535 -0.1124831 0.9900733 207 191 173
0.0315212120051348 0.117895121049538 0.0116797613770364 -0.07982767 -0.1060353 0.9911529 206 190 175
0.0376643662653476 0.122472548352413 0.0126761551406604 -0.06959523 -0.1036908 0.9921717 203 187 169
0.044988250337659 0.123840377862802 0.0132042038594044 -0.06559744 -0.1006073 0.9927614 205 189 172
0.0470312258558166 0.123403379902486 0.0135888012387047 -0.05470483 -0.0904278 0.9943994 206 191 173
-0.0724006091974189 0.0689642465706308 0.0180151903749296 0.04301184 -0.1527927 0.9873219 199 182 160
-0.115893854141027 0.0274265289645163 0.0143484216932278 0.078283 -0.1956196 0.9775504 190 175 143
0.0593733303717506 0.168336473855681 0.0101132123713684 0.4545712 -0.1151687 0.8832334 202 183 156
-0.0681644511845386 0.10026148963686 0.0226401343862781 0.04940045 -0.1552501 0.9866393 198 182 151
-0.0299738776361363 0.0805881912225054 0.0154165997666626 0.115564 -0.1144607 0.9866832 209 193 180
-0.147676124510114 0.122606447407179 0.0358492908994858 0.0190576 -0.1486685 0.9887034 187 169 142
-0.00934737432357402 0.168362109488111 0.0233661494570743 0.1167314 -0.1067332 0.9874117 206 190 176
0.0669401308354444 0.108255684803843 0.00488564033583551 0.2132793 -0.1627186 0.9633455 218 201 189
0.103942301976356 0.172070582186412 0.0126897500679877 -0.05396253 -0.107407 0.9927496 206 190 175
-0.0663609356257765 0.130039202255445 0.0268871158569301 0.09471633 -0.1292422 0.9870791 197 180 159
-0.047724558899907 0.192135022652131 0.0322911610385142 0.1244696 -0.05615403 0.9906331 198 181 155
-0.0965013599715513 0.141613248076894 0.0316000316294544 0.1154182 -0.1497606 0.9819625 199 184 167
0.0686214254239571 0.141366832415328 0.00778790690637836 0.1606228 -0.05684218 0.9853777 212 196 181
-0.106610045396644 0.017157750070495 0.0112780047902749 0.150386 -0.199316 0.968327 194 178 153
-0.0441656052855582 0.203352078575047 0.0231587131487862 -0.07124748 0.8190053 0.5693453 170 139 84
0.0897497389648113 0.185771671811105 0.0131471681657666 -0.05384562 -0.1215408 0.9911249 205 188 171
0.0311807044660911 0.196776024716718 0.019821658257778 -0.01857957 -0.1028273 0.9945257 204 187 165
0.1087957819338 0.158880678386978 0.011741798345338 -0.06523675 -0.09181143 0.9936371 209 193 178
0.00756945031704104 0.143560204891852 0.0200273908934259 0.4025714 -0.05433767 0.9137744 211 195 177
-0.119195385506169 0.00220242558206996 0.00941944583286049 0.06655356 -0.2045169 0.9765979 191 174 146
-0.125837325212719 0.0103122038023741 0.0111867273264997 0.05615071 -0.2073707 0.9766496 185 168 131
-0.117464148546435 0.0100690479883402 0.010758577549952 0.06893258 -0.2101639 0.975233 192 175 145
-0.122898995256594 0.0123548264301896 0.0117637027934669 0.06053349 -0.207754 0.9763063 187 170 137
-0.125234116712084 0.018356536447753 0.0129835808037265 0.04498212 -0.2059676 0.9775244 188 169 138
-0.120455817260948 0.0164145743851598 0.0125902934949175 0.06225104 -0.2089562 0.9759417 191 174 145
-0.122113087061333 0.0198830544833325 0.0133606090104624 0.05546842 -0.2046051 0.9772717 187 169 136
-0.128192005103735 0.024297581976791 0.0143471023768648 0.04483641 -0.2040491 0.9779333 190 170 142
-0.121141716450109 0.0305594596413078 0.0156424995513654 0.05835933 -0.2028053 0.9774785 190 173 142
-0.130754775350034 0.0327309898361836 0.0161079784282392 0.04439809 -0.2011383 0.9785562 188 170 136
-0.128526179194454 0.0365515454194826 0.0169464818013953 0.04003745 -0.2012504 0.9787213 186 167 133
